ply
format ascii 1.0
element vertex 500
property float x
property float y
property float z
property float nx
property float ny
property float nz
end_header
17.5435 12.1499 23.4738 -0.987036 0.10936 -0.117477
19.1093 12.0296 16.7152 -0.827238 0.536917 -0.165521
19.2829 12.0977 15.9936 -0.163754 0.315073 0.934834
17.0937 12.303 24.7945 0.370927 0.0157958 -0.928528
18.8921 12.7296 16.2847 -0.25376 0.240574 0.936873
18.836 13.4549 15.9682 0.378198 -0.836896 -0.395692
18.0529 12.9494 19.4545 0.828855 -0.558176 0.0379463
17.4864 7.9902 24.5338 -0.201138 -0.353638 0.913501
17.2953 9.18735 24.6471 0.85359 0.245652 -0.45939
17.186 9.86786 24.7166 -0.913952 -0.0750259 0.398828
17.0136 10.9597 24.8225 0.940803 0.229747 -0.249212
17.037 12.4383 23.3475 -0.987036 0.10936 -0.117477
17.4624 12.7108 21.2995 -0.840503 0.494955 -0.220394
17.1406 9.24949 24.3748 0.85359 0.245652 -0.45939
18.79 10.3886 16.275 0.768215 0.318302 -0.555455
18.8641 10.4656 15.8771 -0.518571 -0.648325 0.557457
16.8341 11.1375 24.5025 0.940803 0.229747 -0.249212
18.359 11.1671 17.7767 0.827086 -0.330901 0.454349
16.7159 11.843 24.5504 0.977516 0.0488723 -0.205121
17.4043 11.7938 21.6431 -0.979224 -0.195901 -0.0523735
17.3183 12.4617 21.4671 -0.846546 0.478347 -0.233545
19.2374 7.73369 15.7954 0.967018 0.150557 0.205447
19.0338 8.97421 15.8927 -0.945581 -0.194539 -0.260829
18.5793 11.3351 16.4927 0.694675 0.0956249 -0.71294
17.9305 12.8894 18.4057 -0.457839 0.873341 0.166308
18.6589 13.2915 14.8784 -0.644239 0.764475 -0.0231132
18.1998 12.0294 15.9721 0.41751 -0.399791 -0.815998
19.529 12.8001 23.8158 -0.943433 0.187886 0.273189
20.4077 13.0409 19.7688 -0.825159 -0.451759 -0.339155
20.051 8.01459 24.2611 -0.251751 0.763863 -0.594252
19.5723 10.984 24.4549 0.181511 0.871826 0.454942
20.546 13.2545 18.9882 0.0779171 -0.965776 -0.247397
20.5313 13.3466 18.9887 0.0779171 -0.965776 -0.247397
21.1808 13.6748 15.8311 0.149935 -0.986054 0.0722365
21.1443 13.7762 15.9219 -0.0209451 0.982185 0.186745
20.9393 8.42381 19.5468 -0.930977 -0.0659025 -0.359079
20.7009 10.657 19.0662 0.998901 0.0366244 0.0292626
19.4552 11.2355 24.4063 0.181511 0.871826 0.454942
21.3413 7.71177 17.8501 0.613232 0.295795 -0.732429
21.1745 8.28957 18.1987 -0.0301618 -0.274122 0.961222
21.2786 8.5286 17.4986 0.821618 0.51685 -0.240437
21.0652 8.99626 18.3544 0.0782666 -0.439549 0.894802
20.7156 9.5283 19.4265 -0.976917 -0.0183088 0.212832
20.8427 9.77911 18.8879 0.974692 0.0196581 0.222687
20.7777 10.21 18.8989 0.985219 -0.0601094 -0.160406
19.3147 12.7928 23.6734 -0.943433 0.187886 0.273189
19.662 13.0236 21.9031 -0.960027 0.223088 -0.169054
20.4886 13.5325 17.9394 0.0367469 -0.99087 -0.129713
20.461 8.08838 20.96 0.966293 0.244938 -0.0792737
20.9854 8.83746 17.9323 0.290795 -0.858633 0.422123
20.1573 9.02267 21.4987 0.929259 0.368878 -0.0201546
21.0638 9.99429 17.3208 -0.851524 -0.0330945 -0.523271
20.7684 12.3414 16.8696 -0.972479 0.000594456 -0.232991
19.3519 8.54979 24.9964 -0.012531 0.140842 -0.989953
19.295 8.94081 25.0063 -0.012531 0.140842 -0.989953
19.9151 10.2854 21.6138 -0.926746 -0.264028 -0.267267
19.1431 12.5595 23.7236 -0.943433 0.187886 0.273189
20.5119 13.4671 16.823 0.996373 -0.0195169 0.0828279
21.023 7.96518 17.3791 0.598452 -0.594877 -0.536634
20.5737 9.25577 18.6124 0.889986 0.170238 -0.423017
19.03 11.1714 24.3088 -0.156612 0.823117 0.545849
19.4661 12.3668 21.8875 -0.160811 -0.897864 -0.409853
19.443 12.9871 21.5154 -0.565879 0.207009 0.798078
20.3763 13.6079 17.088 0.996373 -0.0195169 0.0828279
20.7168 8.55065 18.1436 -0.574157 -0.160925 0.802775
20.0814 9.19993 20.7335 0.967066 0.229146 0.110792
19.7536 9.67343 21.6129 0.949022 0.174739 0.262343
19.5079 9.65999 22.6253 0.912119 0.225046 0.342628
20.6637 9.6665 17.6267 -0.583838 0.276194 -0.763446
19.7306 10.0834 21.4184 -0.96954 -0.213379 -0.120258
19.9359 10.2277 20.5387 0.982764 0.0712094 0.170598
19.1216 12.4105 22.9323 -0.990197 0.128837 -0.0539566
20.202 13.5421 17.4509 0.996373 -0.0195169 0.0828279
20.8249 7.76423 17.7975 0.372485 -0.641821 -0.670314
20.0858 8.89096 20.3463 0.892865 0.287085 0.346949
18.9809 11.5083 23.5621 -0.921788 0.12393 0.367352
20.3792 12.1637 16.7531 0.414664 -0.856691 -0.306812
20.4014 12.6025 16.6278 -0.640145 0.0211457 0.767963
20.8051 8.00807 17.168 -0.412326 0.879468 0.237745
20.5555 8.62015 17.718 0.392191 -0.882601 -0.259233
20.6003 8.81053 17.4159 -0.0965386 -0.993569 0.0591735
18.8494 9.38371 24.9755 0.200463 0.127936 -0.971312
20.2345 12.1142 17.3671 0.55571 0.760091 0.336821
18.4869 11.3392 24.9979 -0.456882 -0.575675 -0.678128
18.2817 11.6707 25.159 0.430212 0.231649 0.8725
20.1666 13.7152 15.5921 -0.135002 -0.987145 0.0855484
20.5661 8.2824 16.5599 -0.832998 -0.437942 0.338113
20.6432 9.04827 15.7448 0.43918 -0.896083 -0.0644702
20.3927 7.86757 17.2615 -0.123346 0.915271 -0.383489
19.369 13.3132 18.4023 -0.297411 0.942978 -0.149462
20.3139 7.49791 17.1806 0.565999 -0.541212 -0.62188
19.9251 9.38418 17.6228 0.28894 0.297473 -0.909958
18.6783 5.68717 24.3241 0.137632 0.0175297 -0.990328
19.571 1.59991 22.4758 -0.531835 0.837422 -0.125998
20.1911 1.94963 19.6766 -0.236109 0.905936 -0.351473
19.9945 2.21144 20.004 -0.301454 0.883438 -0.358695
19.0223 2.77642 24.1343 -0.411002 -0.0827147 0.907874
20.8353 2.66309 16.0442 0.401927 -0.884201 -0.238
20.1525 1.94876 19.4043 -0.236109 0.905936 -0.351473
20.583 2.54891 17.1344 0.560734 -0.826585 0.0483106
20.5591 2.09436 16.8322 -0.139543 0.973223 0.18266
20.4674 2.03465 17.2878 0.666212 -0.702486 -0.250349
20.1353 1.88632 18.3697 -0.294229 0.953372 0.06717
18.7504 2.64735 24.0307 -0.411002 -0.0827147 0.907874
19.1831 1.87617 22.306 0.274516 -0.946924 -0.16726
18.2292 5.21412 24.3206 0.744403 -0.092297 -0.661321
18.9592 1.26875 22.5824 0.274516 -0.946924 -0.16726
18.2313 4.21006 24 -0.395978 -0.313576 0.86306
19.1119 1.41084 21.3656 -0.122164 -0.950435 -0.285918
18.0421 4.77746 24.0383 -0.783289 -0.0108468 0.621563
18.9003 1.55366 21.6144 -0.770033 -0.621029 0.146195
18.9992 1.62388 21.1292 -0.122164 -0.950435 -0.285918
19.1005 1.69116 20.6328 -0.975672 -0.157034 -0.152983
19.3054 1.83608 19.6417 0.115007 0.694974 0.709778
19.2115 1.85842 20.0304 0.610495 -0.670846 0.421024
19.9154 2.17312 16.6766 -0.442118 0.861362 0.250176
18.9998 2.44066 20.7822 -0.975672 -0.157034 -0.152983
19.2927 2.64567 19.2898 0.115007 0.694974 0.709778
18.2254 2.8361 23.7436 -0.44942 -0.0254185 0.892959
18.4719 3.32378 22.3986 -0.0649002 0.995609 -0.0674594
18.128 3.46169 23.7778 0.92341 0.0952735 -0.371803
19.0186 3.76947 19.7826 0.907651 0.236552 0.346717
18.8024 4.9396 19.9723 0.176239 -0.37558 0.909879
18.0335 3.9525 23.8544 -0.865391 0.0104403 0.500989
19.3029 5.09198 17.5026 0.0967576 0.388323 -0.91643
17.6779 6.0454 24.0682 0.639834 0.356202 -0.680979
17.8186 6.78867 23.0168 0.982749 0.0994022 0.155962
17.5087 7.04659 24.1703 0.98927 0.130473 -0.0657329
22.3172 2.73323 17.8276 -0.278897 0.77153 -0.571803
22.3616 2.95903 17.6688 0.232628 -0.896107 0.377991
20.6768 4.03169 24.4247 -0.328205 -0.137789 0.934503
20.5699 4.96153 24.357 -0.127715 0.450164 0.883765
22.1436 5.19335 17.0377 0.449867 0.251198 0.857041
21.6391 7.30137 18.0002 0.613232 0.295795 -0.732429
20.4268 4.59321 24.502 0.0153854 0.0330588 0.999335
21.6986 5.03093 18.9042 0.79736 0.0292505 0.602795
21.875 2.35887 19.1589 0.844042 -0.0384094 -0.5349
22.0785 4.4381 17.0664 0.449867 0.251198 0.857041
20.2818 4.99619 24.5247 -0.127715 0.450164 0.883765
21.8687 5.08261 17.4711 0.449867 0.251198 0.857041
21.7171 3.90514 18.3121 -0.995474 -0.0766386 0.0561917
20.3638 2.99529 24.441 -0.611491 0.702144 0.364791
21.128 6.32684 18.8524 -0.52228 -0.483198 -0.702669
20.878 6.99136 19.0691 -0.663172 -0.697764 0.27079
21.037 2.19105 21.0551 -0.820294 0.243227 -0.517647
21.1049 2.24251 20.6574 -0.917195 0.0100081 -0.398312
21.5123 2.93649 18.4687 -0.935088 0.211926 0.284074
20.1165 3.89779 24.0929 0.458232 0.399202 -0.794142
21.3198 4.00625 18.64 0.963403 0.138733 0.229363
21.1712 4.05033 19.2537 0.845461 -0.154103 0.511319
19.9133 7.32877 22.6742 0.921383 -0.357766 0.151842
21.571 1.86452 18.2211 -0.613506 -0.475524 -0.630466
21.8108 2.74873 16.8066 0.306663 -0.810452 0.499125
21.4595 3.23798 18.1067 -0.967742 0.118583 0.222291
20.9669 3.89753 19.7015 -0.903975 -0.108804 -0.41351
21.4065 3.87723 17.8171 -0.991115 -0.115406 0.0661202
21.0202 4.73742 19.1953 0.845461 -0.154103 0.511319
21.4647 5.07021 16.9596 0.449867 0.251198 0.857041
21.0744 6.33361 17.8302 -0.987713 0.1449 -0.0585429
20.5398 1.79559 22.4585 -0.359909 0.93292 0.0112517
21.8214 2.04539 16.9382 0.145309 -0.920714 0.362175
21.4868 2.58259 18.0578 0.946718 -0.213717 -0.240935
19.7175 4.8083 24.3799 0.274143 0.759268 -0.590218
21.3254 4.52303 17.6043 -0.741578 0.461171 0.48722
19.7071 5.03967 24.1587 0.928703 -0.339392 0.149409
20.4536 5.95233 20.6548 -0.888676 -0.386537 -0.246668
19.5077 6.53593 24.0521 -0.30999 0.133392 -0.941336
20.3378 7.45238 20.1813 0.938804 0.0166509 0.344048
21.3266 2.06452 18.4813 0.994272 -0.0736825 -0.0774232
21.6056 2.26366 17.1458 0.839399 -0.0186577 0.543196
19.5182 5.20445 24.5683 0.290226 0.436845 0.851432
19.4477 5.99189 24.2764 0.262686 0.188853 0.946219
20.8097 7.38226 17.6192 0.53302 -0.405083 -0.74283
20.4511 1.79854 22.1003 -0.137789 0.955941 0.259213
20.6175 2.14209 21.1395 -0.820294 0.243227 -0.517647
20.353 2.00632 21.9105 0.435185 -0.888688 -0.144387
21.098 2.02584 18.6089 0.994272 -0.0736825 -0.0774232
19.1453 6.4603 24.5276 0.177929 0.0638302 0.981971
21.3621 2.25217 16.8091 -0.192853 0.784092 -0.589921
21.2006 2.53916 17.4985 0.140237 0.975533 -0.169318
21.1245 2.50383 17.8718 0.79883 -0.431443 -0.419199
19.7579 3.50629 23.1601 0.737459 -0.20229 0.644385
20.0644 1.90208 22.2658 -0.359909 0.93292 0.0112517
20.6409 2.10027 19.7756 0.106687 -0.988517 0.107013
20.5556 2.27265 19.4998 -0.431312 0.763113 -0.481279
19.1994 4.34159 24.2107 -0.377242 0.893634 0.243117
20.7674 2.44403 17.7938 0.564912 -0.743898 -0.357058
20.3943 14.0983 12.0229 -0.310194 -0.945188 0.101981
20.3994 14.2212 10.7589 0.0126836 0.974839 0.222549
20.7284 12.5041 9.73512 0.0145765 -0.0448063 0.998889
21.0046 10.1902 9.47397 0.190596 0.580194 -0.791864
21.3042 7.67989 9.22232 0.205505 -0.176618 0.962587
19.3546 13.6878 14.1698 -0.195959 0.957942 0.209636
19.4562 13.7545 13.6761 -0.140327 0.98367 0.112702
19.9974 14.0954 11.0702 -0.0865741 0.817062 0.570013
20.8896 8.42121 9.20782 -0.762946 -0.328298 -0.556896
20.6296 10.0487 9.37772 -0.441938 0.128203 -0.887837
20.5368 10.6366 9.43509 0.646808 0.212668 0.732402
19.0985 13.708 13.9104 -0.195959 0.957942 0.209636
19.0046 13.6482 14.3745 -0.311529 0.933103 0.179636
20.7171 8.89093 9.2469 -0.909058 0.219094 -0.354417
19.9918 13.4199 9.6896 0.946262 -0.0281085 0.322178
19.9006 13.8137 9.7131 0.946262 -0.0281085 0.322178
19.5606 14.0439 11.214 -0.62133 0.692714 -0.366191
19.787 14.1771 10.1335 0.408171 -0.825552 0.389693
20.8652 6.85867 9.23704 0.718523 -0.0366277 0.694538
19.4628 8.88789 14.2534 -0.970038 -0.140548 -0.198172
19.3062 9.11754 14.8213 -0.964946 -0.146985 -0.217425
19.4326 9.46986 14.0084 -0.972714 -0.138601 -0.186056
19.5028 7.90007 14.4962 -0.967617 -0.120967 -0.22155
19.7029 8.03896 13.536 -0.971516 -0.132972 -0.196152
19.4869 9.25704 13.7272 -0.972714 -0.138601 -0.186056
19.2072 10.4066 14.2251 -0.964285 -0.148971 -0.219003
19.5825 10.6462 12.4377 -0.766453 -0.0463283 -0.640627
20.0281 11.8131 9.70134 0.0145765 -0.0448063 0.998889
19.9349 12.3257 9.75348 -0.399134 0.282441 -0.872307
19.8394 12.9039 9.79943 0.952136 0.0637005 0.298962
18.7206 13.3701 14.5522 -0.235381 0.895696 0.37726
19.7381 13.5315 9.82036 0.946262 -0.0281085 0.322178
19.2627 13.7183 11.8832 0.285308 -0.951489 -0.115185
19.4812 13.855 10.795 0.989069 -0.120584 0.084861
23.181 10.287 9.69383 0.0107569 0.0175196 0.999789
23.0845 10.8288 9.77369 0.624163 -0.0396009 0.78029
23.3763 8.05745 9.69196 0.0786056 0.777406 0.624068
23.1025 9.37752 10.0443 -0.589718 0.545617 -0.595428
22.4286 13.2656 10.4915 0.965863 -0.0861422 -0.244312
21.3393 13.7363 15.0716 0.477659 -0.870123 -0.12136
22.2284 14.1724 10.7915 0.815832 0.11585 -0.566566
22.5996 10.7831 10.9261 -0.290384 -0.22449 0.930205
22.4664 8.68661 12.1539 -0.996472 -0.0675179 0.0498443
22.6012 11.3316 9.94826 -0.0732037 -0.612135 0.787358
21.7378 12.5122 13.0326 0.994022 -0.0758327 0.0785434
21.8141 12.833 12.4844 0.600706 -0.0155856 -0.799318
22.0474 12.8471 11.3388 -0.735964 0.640236 0.220124
21.998 13.1262 11.2863 -0.296356 0.70658 -0.642587
21.7326 13.3336 12.4487 -0.554321 -0.120453 0.823541
21.0825 13.9211 15.0742 0.226402 -0.960536 -0.161595
22.0857 14.145 10.5396 0.815832 0.11585 -0.566566
23.0286 7.47899 10.021 -0.502601 -0.385752 -0.773684
21.7625 12.5092 12.6309 0.841524 0.126301 -0.525249
21.5391 12.6211 13.4105 0.734628 -0.00568221 0.678447
21.4705 13.2458 13.4343 0.537685 0.591551 0.600801
21.8643 13.3822 11.4586 -0.296356 0.70658 -0.642587
22.9213 8.11381 9.58473 0.0908507 0.567123 0.818607
22.3016 10.9302 10.576 0.654406 0.518889 -0.550007
22.3426 11.7033 9.94327 0.00629009 -0.706029 0.708155
22.2885 10.5384 10.4979 -0.864734 0.0475894 0.49997
21.0271 12.5246 14.5783 -0.850779 -0.484326 0.203969
22.5617 7.63758 10.5575 -0.532323 -0.642467 -0.551242
22.209 10.0966 10.6549 -0.829459 0.357554 0.429131
21.8646 12.0549 10.9397 -0.103882 0.514955 -0.8509
21.0721 13.4542 13.6222 -0.322029 -0.247779 0.91373
22.5526 7.41909 10.2027 -0.912632 -0.406879 0.0394108
22.1578 10.4671 10.0039 0.951816 0.130213 -0.277653
21.9053 11.3051 10.5764 -0.717832 -0.654204 0.23819
21.3832 12.4786 12.4964 -0.284683 0.692594 0.662774
21.2988 12.8674 12.3115 0.670836 -0.261267 -0.694059
21.7486 13.4273 10.3194 0.250284 -0.890282 -0.380467
20.6793 13.7035 14.5064 -0.20798 0.948353 0.239522
20.8016 14.1217 13.8418 0.0158501 0.980932 0.193705
21.3763 12.7234 11.9431 -0.868708 -0.483702 0.106676
21.5726 12.9626 10.861 -0.397161 -0.834697 0.381503
20.5918 13.4315 14.9666 -0.106405 0.994319 -0.00278313
21.4076 13.2954 11.4844 0.521757 -0.843883 0.125024
22.42 8.15104 9.48843 0.217833 0.950342 0.222259
22.149 9.83784 9.65698 0.35213 0.814954 -0.460277
20.9469 13.3114 12.9276 -0.30858 -0.896008 0.319292
20.8674 8.89445 15.5928 0.43918 -0.896083 -0.0644702
21.86 11.0266 9.75758 0.0330055 -0.0207639 0.999239
20.7505 12.8529 13.6858 0.0364075 0.243651 0.969179
20.3301 13.8194 14.8011 -0.106405 0.994319 -0.00278313
20.8861 14.1719 12.1364 -0.37766 -0.913042 0.154033
21.2842 10.9228 12.1185 -0.98033 -0.188379 -0.0588736
21.1244 12.6403 11.3744 -0.980697 0.191402 0.0399913
21.5605 11.4087 9.98628 -0.226331 0.850258 -0.475222
21.5646 11.4013 10.0532 -0.226331 0.850258 -0.475222
20.5731 12.9569 13.5075 0.21362 -0.741944 -0.63552
21.1443 13.1727 10.8004 -0.82568 0.554819 -0.102117
20.7091 14.14 11.8342 -0.880452 -0.467032 -0.0817598
20.8419 13.8219 11.2221 -0.795318 -0.571919 0.200943
21.9002 8.24335 9.41576 0.0393255 -0.650103 0.758828
20.6681 14.2476 10.948 -0.179028 -0.982854 -0.044119
22.3281 3.08177 9.78877 -0.327096 0.940016 -0.096844
21.3891 2.7625 13.4311 0.0752748 -0.924228 0.374347
21.7102 2.99812 11.8684 0.278473 -0.0853972 -0.95664
21.6436 3.25709 11.9098 0.278473 -0.0853972 -0.95664
22.0995 3.06187 9.42992 0.183224 -0.809991 -0.557085
21.5919 2.92632 9.93669 0.461254 0.0335625 0.886633
19.9968 5.39027 15.2823 -0.552928 -0.175559 0.814524
20.444 2.24824 15.01 -0.00650631 -0.912106 0.409903
21.1041 2.67378 11.7906 0.300917 -0.922349 0.242325
21.2298 2.74708 11.1963 0.444286 -0.894414 -0.0513253
20.13 4.50842 15.1513 -0.953457 -0.191563 0.23286
21.5022 4.62174 8.83952 -0.205628 -0.562683 0.800691
21.2745 6.04179 8.97915 0.0149832 0.320855 0.94701
20.5641 3.47435 13.0583 0.913548 0.247813 0.322518
21.1476 3.84187 10.2177 0.796214 0.14798 0.586639
21.4661 4.22698 8.78177 0.604152 0.493807 0.625424
20.2218 2.38413 15.109 -0.00650631 -0.912106 0.409903
20.1924 2.38787 15.2905 -0.00650631 -0.912106 0.409903
20.6548 2.6647 13.0233 -0.669207 -0.517016 0.53372
20.8293 2.81226 12.1281 -0.101185 0.988103 0.115815
20.6996 2.83968 12.7139 0.92085 0.343784 0.183978
21.0599 3.04438 10.936 -0.948896 -0.302023 -0.0915293
21.4567 3.33904 8.95341 0.565078 0.687957 0.455414
20.416 3.67773 13.4248 0.966711 0.119746 0.22612
20.9175 5.01168 10.3953 -0.718999 -0.267331 -0.641541
21.0423 5.098 9.79439 0.873024 0.332661 0.356602
20.4294 6.00569 11.9646 0.230604 0.961828 0.147336
20.9468 6.2053 9.38885 0.268572 0.124548 0.955174
25.0129 2.24906 6.24867 -0.354157 -0.740678 0.570937
22.8 3.31988 15.474 -0.318572 0.933096 0.166863
23.5498 3.27206 12.0949 0.0191072 0.834746 -0.550303
24.0866 3.71039 9.40745 -0.304636 0.182115 0.934896
23.777 3.85343 10.7083 -0.759769 0.624957 -0.179387
23.0399 4.50627 13.5771 0.75486 -0.586185 0.294235
23.8408 5.17877 9.51514 -0.845388 -0.457925 -0.274999
23.2439 3.43672 12.2269 0.0191072 0.834746 -0.550303
22.8625 4.27884 13.5531 0.75486 -0.586185 0.294235
22.9816 4.38869 12.96 0.75486 -0.586185 0.294235
24.6095 3.05249 6.11657 -0.354157 -0.740678 0.570937
22.8305 3.73468 12.936 0.724052 -0.648616 0.23462
22.7879 4.09966 13.0252 0.75486 -0.586185 0.294235
23.0947 6.21643 10.428 0.882658 0.414479 -0.221634
23.2705 6.18529 9.64545 0.887886 0.0609969 -0.456002
22.9878 6.93787 10.5194 -0.746652 -0.321537 -0.582345
22.3418 2.95671 15.2971 -0.318572 0.933096 0.166863
22.7006 7.13095 10.5181 -0.746652 -0.321537 -0.582345
22.4911 3.99141 13.2787 0.75486 -0.586185 0.294235
22.7049 3.02533 12.0689 0.0367227 -0.558057 0.82899
22.4401 3.17496 13.5718 -0.800506 0.598265 0.0356401
22.9519 2.99061 10.7898 -0.531951 0.839068 0.113983
21.8987 3.3433 15.2784 0.185689 0.39038 0.901733
23.1822 3.43539 9.50723 0.482167 -0.863206 0.149632
22.7408 6.95859 9.39622 0.519855 -0.625433 0.58188
21.8183 2.73012 15.4701 0.185689 0.39038 0.901733
23.1939 3.33484 9.017 0.131049 -0.664408 -0.735791
22.6641 6.6399 9.34158 0.421335 -0.254262 -0.870533
22.087 3.1043 13.575 -0.155114 0.467206 0.870436
22.2016 3.35651 12.0371 -0.287122 -0.476754 0.830823
22.397 6.39913 9.27591 0.421335 -0.254262 -0.870533
22.1404 2.84729 12.1248 0.202945 -0.0299908 -0.978731
21.7418 2.63548 13.5766 -0.156801 0.856802 -0.491226
21.1647 2.68788 15.8096 0.491987 -0.834032 -0.249677
19.5145 12.8496 16.0716 0.347512 0.0911958 -0.93323
18.3851 13.3964 20.894 -0.210083 0.967035 0.143905
18.9513 11.9641 17.545 0.79873 -0.598201 0.0647053
18.6029 13.1933 18.2582 -0.232865 0.931307 -0.280074
17.6259 8.34181 24.6047 -0.24953 -0.0696636 0.965858
17.1981 11.6283 24.9446 0.370927 0.0157958 -0.928528
17.3436 9.4974 24.6986 0.85359 0.245652 -0.45939
19.1581 8.58039 15.8382 -0.959319 -0.143947 -0.24287
18.8258 8.85284 17.1892 0.28622 -0.938112 0.194998
18.563 9.48753 17.9157 -0.223747 -0.377387 0.898619
17.0685 9.83439 24.321 -0.913952 -0.0750259 0.398828
16.9723 10.7238 24.1662 -0.9865 -0.161919 0.0244927
17.2306 12.2941 21.9711 -0.979224 -0.195901 -0.0523735
17.9866 12.6328 18.3415 0.891949 0.0621363 0.447847
18.9113 8.84654 16.4996 0.955386 0.201227 0.216205
18.6663 8.75165 17.6567 0.469507 0.748206 -0.468776
18.5479 11.3713 16.571 0.694675 0.0956249 -0.71294
18.653 13.0913 15.0546 -0.644239 0.764475 -0.0231132
18.2335 10.6767 15.8024 0.844272 0.302676 -0.442257
20.1998 8.28862 24.7508 0.115964 -0.660726 0.741616
19.4094 10.824 25.2698 -0.340783 -0.930637 -0.133347
19.822 8.07619 24.2081 -0.251751 0.763863 -0.594252
19.4352 8.13223 24.9224 0.130467 -0.751377 0.646847
21.3074 8.03749 17.2152 0.598452 -0.594877 -0.536634
21.1609 9.5603 16.9384 -0.684368 -0.108201 -0.721064
19.2526 11.4499 24.1934 -0.156612 0.823117 0.545849
19.2604 11.6384 23.6815 -0.921788 0.12393 0.367352
20.7075 12.3231 17.1311 -0.972479 0.000594456 -0.232991
19.6407 13.073 21.0451 -0.565879 0.207009 0.798078
19.9914 13.3733 18.8616 0.0779171 -0.965776 -0.247397
20.2386 13.5146 17.6787 -0.194787 0.980843 -0.00245879
20.5729 8.66889 18.1796 -0.574157 -0.160925 0.802775
19.235 9.55858 23.423 -0.98755 -0.0710943 -0.140324
20.4935 9.52361 17.8833 0.726102 0.641931 -0.246374
18.6308 8.24086 24.7855 0.134058 0.434236 -0.890768
20.6432 9.04827 15.7448 0.43918 -0.896083 -0.0644702
18.2647 10.5492 25.0131 -0.260359 -0.0690598 -0.963039
20.0588 8.08734 17.7916 -0.857812 -0.217587 0.465633
19.4405 12.6842 18.0533 -0.0506034 -0.665448 0.744727
19.2476 1.31327 22.6412 -0.531835 0.837422 -0.125998
19.5306 1.44505 21.7723 -0.475727 -0.827475 0.298277
20.1675 1.98554 17.2652 0.666212 -0.702486 -0.250349
18.3847 4.46691 24.0657 -0.205317 -0.201685 0.957689
17.6145 7.16942 24.4493 0.987664 0.0733824 -0.138328
19.0314 1.89993 20.8104 -0.975672 -0.157034 -0.152983
18.1292 3.59003 23.6861 0.92341 0.0952735 -0.371803
18.12 3.78368 23.6157 -0.865391 0.0104403 0.500989
17.942 5.21546 23.4554 -0.901275 -0.348705 0.257114
17.7405 5.95045 23.8844 0.639834 0.356202 -0.680979
17.553 7.22995 23.8823 0.986355 0.068775 0.149582
20.5699 4.96153 24.357 -0.127715 0.450164 0.883765
21.2079 5.11004 21.4405 0.982193 0.0828039 0.168641
21.305 2.88585 19.9458 0.76988 -0.00250103 0.638184
21.0358 2.20429 20.9247 -0.820294 0.243227 -0.517647
21.4847 2.6765 18.7216 -0.811829 0.400307 0.425075
19.8946 5.62193 24.0635 -0.452787 -0.459052 -0.764366
21.0725 1.52965 20.4955 -0.85949 -0.469857 0.201272
20.1408 3.49177 23.3749 -0.876021 0.141266 0.46112
21.3254 4.52303 17.6043 -0.741578 0.461171 0.48722
19.5934 5.33309 24.6102 0.824438 0.169099 0.5401
19.5439 7.22647 22.2996 -0.143161 0.809775 0.569008
19.0688 7.69511 24.3653 -0.383276 0.295716 -0.875015
19.4464 4.68987 23.7653 0.689592 -0.654437 0.310121
18.9269 7.07674 24.5542 0.136594 -0.26563 0.954349
20.8678 4.2177 16.8637 -0.804765 0.383427 0.453142
19.0701 4.57359 24.2162 0.01321 0.382345 -0.923925
19.986 7.20609 18.2373 -0.500102 -0.478981 -0.72144
20.8927 12.7074 9.79521 -0.115284 -0.819156 0.561866
19.8026 13.7822 13.9607 0.170435 -0.981027 -0.0924026
21.0786 9.69533 9.44073 -0.19637 -0.123601 0.972708
19.6926 7.39423 14.1828 0.963355 0.144696 0.225856
20.5807 8.23616 9.61633 -0.762946 -0.328298 -0.556896
20.5691 8.14261 9.72865 -0.762946 -0.328298 -0.556896
19.334 9.87531 14.1686 0.968718 0.151351 0.196666
19.2624 10.0836 14.346 0.968718 0.151351 0.196666
19.1456 11.1654 14.1564 -0.964285 -0.148971 -0.219003
20.1537 10.5399 10.0028 0.67173 0.173258 0.72025
20.0066 11.8184 9.80008 0.0145765 -0.0448063 0.998889
22.6592 11.6954 10.5007 -0.789643 -0.0102013 -0.613482
21.5758 11.8578 14.3507 -0.692522 -0.564243 -0.449493
22.1639 13.4774 10.9967 -0.869256 -0.0682802 -0.489623
22.4932 8.73867 11.2725 -0.992374 0.122605 0.0127355
22.834 9.26238 9.72425 0.228418 0.0613827 -0.971626
21.5803 13.1725 12.8792 -0.101624 -0.95371 0.283037
21.096 14.0201 14.0651 -0.991106 0.110491 -0.0741701
21.7547 10.5797 12.9961 -0.99429 0.0351849 0.100741
21.8446 13.5805 10.0875 0.815832 0.11585 -0.566566
21.1344 14.103 13.2658 0.986543 -0.0399515 -0.158545
22.079 9.68454 10.7049 -0.933024 0.299485 0.199435
21.8927 11.1003 10.8488 0.600764 0.612088 -0.514228
21.7285 11.7078 11.0808 0.376387 0.49487 -0.783222
21.2202 12.9153 12.3462 0.670836 -0.261267 -0.694059
22.0467 8.61507 9.47934 0.13398 -0.17636 0.975165
21.2748 13.0713 10.8034 -0.82568 0.554819 -0.102117
20.5587 13.546 13.1597 0.254735 0.0115585 0.966942
20.7327 13.7146 12.2812 -0.365621 -0.794153 -0.485429
20.2499 13.8152 14.7082 -0.258525 -0.965552 -0.0295656
21.8294 8.28909 10.0456 -0.662108 -0.695167 -0.279923
21.3093 11.6097 10.3815 -0.288137 -0.934766 0.207819
20.1361 13.9121 13.4981 -0.283259 0.829988 -0.480505
21.9744 2.92979 11.9089 0.202945 -0.0299908 -0.978731
22.4893 3.13951 9.44421 -0.315017 0.941654 -0.118541
21.8197 4.26526 9.64544 0.169645 -0.903913 -0.392635
21.0612 2.55367 12.962 -0.0324917 -0.997128 -0.0684176
20.1271 6.0726 15.4151 -0.574755 0.223385 0.787246
20.5488 2.72786 13.4615 -0.669207 -0.517016 0.53372
20.1719 4.51449 14.1224 0.972879 0.22449 0.0557777
19.8894 5.81021 14.3148 -0.987158 -0.131566 0.0906067
23.9727 4.83284 9.16627 0.170485 0.0477691 0.984202
24.4709 2.69823 6.04345 0.277765 0.96051 -0.0163652
23.5083 4.97336 9.29343 0.330954 -0.0888787 0.939452
21.7768 6.30813 15.783 0.418184 -0.658659 -0.625532
22.6501 5.73647 11.7739 -0.546759 -0.587553 -0.596521
23.0721 3.47338 10.3735 -0.58128 0.807697 0.098688
23.2771 3.70022 9.46964 -0.0922328 -0.482612 0.870964
22.882 6.01224 9.81915 -0.273482 -0.952743 -0.132242
22.412 3.59251 12.5406 -0.303361 -0.732192 0.609809
22.8581 4.31466 9.56378 0.0789576 -0.0132806 0.99679
22.4939 6.35834 9.28979 0.421335 -0.254262 -0.870533
22.4127 2.98279 10.8414 -0.25667 0.963576 0.0751107
22.5578 3.83014 8.93843 0.0388745 -0.302126 0.952475
17.5051 8.4931 23.2858 0.983366 0.18159 0.00407264
17.0141 10.8988 23.8554 0.984675 0.17167 0.0307455
17.796 12.1545 19.5427 -0.854083 0.493116 -0.165466
19.2896 10.977 26.0077 0.306865 0.951638 -0.0148314
20.5462 12.1017 19.7787 0.986299 0.132044 -0.0988879
19.8314 14.1639 21.653 -0.565879 0.207009 0.798078
20.2033 8.69654 17.2154 0.552489 0.0262535 0.833106
19.7612 12.1657 16.227 -0.360711 0.61204 0.703772
18.6787 5.0636 24.2492 -0.140828 -0.206077 0.968349
21.5858 1.12397 18.7265 -0.797343 -0.0719572 0.599221
19.7579 3.50629 23.1601 0.737459 -0.20229 0.644385
20.8678 4.2177 16.8637 -0.804765 0.383427 0.453142
19.2683 2.71474 24.1774 -0.302113 0.132663 0.943996
20.0047 7.24444 18.1701 -0.500102 -0.478981 -0.72144
20.7299 6.95378 9.81886 0.676089 0.00659433 0.736791
20.4876 8.46625 9.99006 -0.0796495 0.844575 0.529481
19.202 9.52227 14.9801 -0.964946 -0.146985 -0.217425
19.6867 12.9463 10.4821 0.947911 0.0802294 0.308265
19.6609 13.3208 10.4467 0.947911 0.0802294 0.308265
22.6573 10.3022 10.7736 0.574393 -0.154901 -0.80379
21.4599 12.5677 11.6382 -0.447531 0.879142 -0.163784
21.1917 11.6146 11.0078 0.376387 0.49487 -0.783222
22.9431 3.1251 7.61712 0.409719 -0.877314 0.249902
21.1946 3.75058 10.0042 -0.954865 0.0891322 -0.283353
23.7182 4.44097 10.5672 0.778148 -0.456061 -0.431848
24.3847 2.62637 6.01571 0.277765 0.96051 -0.0163652
23.1917 3.28565 9.05613 0.131049 -0.664408 -0.735791
22.2746 5.72538 11.6137 0.268892 0.614087 0.74202
19.1623 8.19552 16.0701 0.9695 0.153744 0.190871
18.986 2.97575 24.1537 -0.411002 -0.0827147 0.907874
21.7043 0.48774 18.7922 -0.797343 -0.0719572 0.599221
20.4702 7.63916 19.6968 0.938804 0.0166509 0.344048
20.5983 2.25572 15.1882 -0.00650631 -0.912106 0.409903
24.3885 3.99577 7.86947 0.718154 -0.688665 0.0999801
23.4602 2.81159 5.86638 0.277765 0.96051 -0.0163652
