ply
format ascii 1.0
element vertex 500
property float x
property float y
property float z
property float nx
property float ny
property float nz
end_header
20.4906 7.47228 21.6347 0.106343 -0.286 -0.95231
20.6863 8.18684 21.5004 -0.694919 0.264184 -0.668801
21.0109 10.3106 20.8774 0.468824 -0.279547 -0.837889
21.2148 5.50001 20.7762 -0.772545 0.540089 -0.333883
21.2138 5.0018 20.8323 -0.673678 0.106222 0.731351
21.2535 5.02626 20.8361 -0.673678 0.106222 0.731351
21.0335 10.6762 20.8128 -0.805855 0.510316 0.300292
21.3419 10.5031 18.2154 -0.997097 0.0749192 0.0135587
21.4919 10.6209 18.3574 -0.997097 0.0749192 0.0135587
21.4916 10.6439 18.447 -0.971344 -0.220046 -0.0898382
21.7555 5.4581 22.0871 0.880492 -0.423999 -0.212036
21.7462 4.85715 22.1886 0.858136 -0.131669 0.496252
21.5954 10.9614 21.1412 -0.767265 0.528999 0.362581
21.6073 10.6067 21.2011 -0.767265 0.528999 0.362581
21.6912 8.77669 21.5188 0.428638 -0.358517 -0.829298
21.8597 5.1623 22.1459 0.880492 -0.423999 -0.212036
21.9839 5.55716 17.8024 -0.952169 0.279536 -0.123425
22.0646 4.17369 17.9625 -0.955777 0.2608 -0.135918
21.967 5.36378 18.0486 -0.952169 0.279536 -0.123425
21.7443 10.6199 19.1893 -0.971344 -0.220046 -0.0898382
22.0484 4.83079 19.5032 -0.964173 0.239801 -0.113426
21.7542 10.9277 20.7803 0.754137 -0.473753 -0.454791
21.7525 11.0329 20.9608 0.754137 -0.473753 -0.454791
21.7706 10.6127 21.009 -0.767265 0.528999 0.362581
21.8218 9.50931 21.1184 -0.307907 0.308668 0.899954
21.8265 9.51601 21.202 0.313517 0.259742 0.913368
21.8626 8.83471 21.3372 0.428638 -0.358517 -0.829298
21.9001 8.21904 21.3874 0.00361689 0.267575 0.96353
22.1304 4.07372 17.156 -0.960749 0.251854 -0.116326
22.0934 4.86687 19.2824 -0.964173 0.239801 -0.113426
22.1236 4.32597 19.3956 -0.962469 0.251092 -0.102982
22.0098 6.24731 20.19 -0.959756 0.250039 -0.127865
22.068 5.12735 20.3514 0.192523 0.958334 0.211022
21.9859 6.64756 21.6325 -0.401168 -0.232433 -0.886024
21.9932 6.58653 21.7175 -0.401168 -0.232433 -0.886024
22.0688 5.14546 21.8829 0.987533 -0.115218 0.107249
22.0495 5.5651 21.9142 0.987533 -0.115218 0.107249
22.1182 4.28355 22.0945 0.756021 -0.12305 0.642877
22.5744 4.80242 21.0818 0.524194 -0.835697 -0.163802
18.0307 10.9833 16.7544 0.135877 -0.116548 -0.983847
18.3259 10.9945 20.8456 0.453296 0.0879801 0.887007
18.3553 10.1813 20.9006 0.357516 0.118821 0.926317
18.3594 10.367 20.9583 0.363475 0.116144 0.924336
18.4073 9.14686 21.0005 0.122292 0.190502 0.97404
18.4637 8.16013 21.0671 0.2335 -0.256948 -0.937793
18.7066 6.16257 18.4431 -0.397074 -0.140773 -0.906926
18.4038 11.1559 19.2509 -0.747773 0.49284 0.444909
18.4038 11.1559 19.2509 -0.747773 0.49284 0.444909
18.7192 7.26079 17.0146 0.911872 -0.375594 0.165589
18.757 7.26054 19.008 -0.962112 0.269873 0.0388395
18.8123 6.83124 17.1358 0.93271 -0.0231581 0.359884
18.8329 6.49348 17.5428 0.571206 0.513185 0.640597
18.7961 7.06881 18.618 -0.962112 0.269873 0.0388395
18.9088 7.0361 19.0304 -0.962112 0.269873 0.0388395
18.7205 9.62975 21.123 0.234041 0.167617 0.957669
18.7525 8.94063 21.2426 0.122292 0.190502 0.97404
18.7913 8.10898 21.3841 0.244941 -0.241481 -0.938984
18.8478 6.89664 21.5812 0.069563 0.156712 0.985191
18.9295 8.17891 16.7725 -0.96238 0.236158 -0.134369
19.091 5.5041 18.0566 0.68527 -0.527901 0.501723
18.9765 5.89976 18.4577 0.68527 -0.527901 0.501723
18.9986 10.4148 16.789 0.0698303 -0.0462091 -0.996488
18.9985 8.96906 18.7477 0.989373 -0.062199 0.131421
18.8594 11.055 20.6702 0.855187 0.447483 0.261562
18.8767 10.8222 20.7566 -0.814064 -0.0328224 -0.579848
19.1811 6.05681 21.5924 -0.958766 0.164683 -0.231619
19.087 10.9945 19.5726 -0.747773 0.49284 0.444909
19.2401 6.25779 21.7327 -0.958766 0.164683 -0.231619
19.168 10.4247 16.7005 -0.91876 0.242346 -0.311686
19.1745 10.5297 17.1143 -0.77378 0.624906 0.103717
19.2673 8.14704 17.8375 0.993325 0.0493151 0.104281
19.4167 5.99996 18.2203 -0.397074 -0.140773 -0.906926
19.4359 6.00638 18.2726 -0.397074 -0.140773 -0.906926
19.3208 8.16092 18.7634 -0.981115 0.107858 -0.16056
19.1789 10.2027 20.6881 0.810459 -0.277935 0.515663
19.3542 6.489 21.7023 -0.958766 0.164683 -0.231619
19.3869 10.385 17.6216 0.863599 -0.493605 -0.102716
19.4069 8.01894 17.5434 0.916368 -0.382721 -0.11745
19.6326 4.68026 18.5543 0.923053 -0.00988183 0.384545
19.3461 10.5509 20.3556 -0.983732 0.120695 -0.133059
19.6058 5.75279 20.5287 0.116184 0.308665 0.944048
19.5374 5.74064 20.9029 0.884718 0.166797 0.435263
19.4481 7.72999 21.4038 0.187999 -0.295727 -0.936591
19.6142 7.60656 17.9827 -0.912196 0.403406 -0.0718507
19.6014 6.17872 20.4874 0.116184 0.308665 0.944048
19.507 9.43757 20.9863 -0.21474 -0.30957 -0.926311
19.6655 7.78293 17.8927 0.993325 0.0493151 0.104281
19.5127 11.4519 19.8232 -0.699845 0.714267 -0.00625604
19.9901 5.59251 17.0365 -0.54966 0.154635 0.820952
19.9369 5.53876 20.6529 -0.357212 -0.337739 -0.870823
19.9497 5.1288 21.9811 -0.334946 0.315458 0.887861
20.1649 4.4912 17.8773 0.889362 0.0240774 0.456568
20.2948 4.96503 16.9417 -0.54966 0.154635 0.820952
20.1291 7.02574 21.6812 -0.0878782 0.295508 0.95129
20.3924 5.75349 18.9254 -0.084422 0.961007 -0.263322
20.6435 7.78966 11.2931 0.04332 0.0636003 -0.997035
20.8101 7.21196 11.421 -0.360299 -0.110595 -0.926258
20.8071 7.36226 11.7592 0.164051 0.137172 0.976868
20.9998 3.9551 12.1076 0.798658 -0.180079 0.574211
21.0033 4.04059 12.3791 -0.123955 0.576215 0.807844
20.9223 5.88308 11.7532 0.150335 -0.293645 -0.944019
20.9918 4.36584 12.2896 0.798658 -0.180079 0.574211
21.1993 4.05632 11.9306 0.798658 -0.180079 0.574211
21.1808 4.37076 11.8759 0.798658 -0.180079 0.574211
21.2383 5.48725 11.7014 0.150335 -0.293645 -0.944019
21.2255 7.8794 11.7753 0.000491976 0.191472 0.981498
21.4543 9.38037 13.3888 0.48388 0.863258 0.143683
21.7137 6.67498 11.5335 -0.169523 0.218917 0.960904
21.7295 6.34076 11.5911 -0.0169999 0.254894 0.96682
21.8286 4.15137 11.9662 0.798658 -0.180079 0.574211
21.5886 9.20796 12.851 0.308789 0.946145 0.0972598
21.5645 9.50397 14.4453 -0.567295 -0.820387 0.0717056
21.5253 10.1482 16.4961 -0.990855 0.08175 -0.107343
21.8517 7.26218 11.6269 0.0512868 -0.0819927 -0.995312
21.8867 6.58663 11.7514 -0.899216 0.137107 0.415466
21.9402 5.49733 11.9414 0.0233198 -0.304669 -0.952173
21.8275 6.81485 12.4059 0.971209 -0.0970223 0.217575
21.8749 6.30829 13.5934 -0.902954 -0.328462 -0.277103
21.8949 5.9645 13.6542 -0.75725 0.652361 -0.0315711
21.8862 6.14924 14.7129 -0.489309 0.575911 -0.654907
21.777 9.48055 14.8345 -0.99031 0.134578 0.0342777
21.7742 9.69333 15.6218 -0.954429 0.235877 -0.18283
21.794 9.06369 16.2816 -0.965703 0.193932 -0.172653
21.7655 10.0523 16.9603 -0.548196 -0.717012 -0.430552
18.5431 6.02 15.9661 0.875371 -0.483068 -0.0192385
18.7302 5.68443 11.9981 -0.899462 -0.129189 -0.417466
18.4599 10.9343 16.0342 -0.165113 0.824176 -0.54173
18.8753 4.7665 12.6883 -0.83237 0.368095 -0.414326
18.8157 4.88624 13.4742 -0.976009 0.209959 -0.0576529
18.8175 5.68241 14.068 0.949038 -0.311958 0.0448276
18.8185 5.64679 15.8873 0.872692 -0.471571 0.126611
18.9697 5.66305 13.0425 -0.921807 0.377963 0.0861203
18.9218 5.25093 13.1528 -0.967636 0.244677 -0.0617615
18.9779 4.95765 14.1247 -0.976009 0.209959 -0.0576529
18.7611 10.499 15.007 0.588948 0.808127 -0.00839429
18.8888 9.85539 12.251 -0.590911 0.783164 0.193592
19.035 9.62421 12.6284 -0.590911 0.783164 0.193592
19.0236 10.3044 15.8473 0.8284 0.0435409 0.558442
19.2646 7.29608 11.6006 0.477438 -0.0475854 0.877376
19.296 7.01949 11.6512 0.434713 -0.100043 0.894995
19.174 9.68556 13.1239 -0.649438 0.757753 -0.063566
19.1391 9.71678 13.1093 -0.649438 0.757753 -0.063566
19.4101 4.93578 13.9132 -0.976009 0.209959 -0.0576529
19.0576 10.1967 15.4134 -0.390222 0.893278 0.223118
19.2086 9.23523 16.1704 -0.692907 -0.0442018 -0.719671
19.246 6.35092 16.2889 -0.39251 0.819693 -0.41718
19.5524 5.21066 11.3586 0.715309 -0.616266 -0.329467
19.4035 6.3585 13.8875 -0.908447 0.384324 -0.164372
19.4235 5.95892 13.969 -0.908447 0.384324 -0.164372
19.3841 6.78877 14.4427 -0.953543 0.268595 -0.13643
19.4728 5.63258 15.3158 -0.77363 0.452869 -0.443178
19.5122 8.1933 11.3136 0.0639429 -0.135981 -0.988646
19.5621 6.4167 11.5233 0.114832 0.0253506 0.993061
19.6117 4.32618 11.5254 0.958645 -0.257376 0.121483
19.6913 4.37091 11.9594 0.958645 -0.257376 0.121483
19.5766 5.20282 12.0023 0.715309 -0.616266 -0.329467
19.5932 4.92624 12.044 0.866639 -0.200168 0.457023
19.4249 7.57189 14.9825 0.998264 -0.0133091 0.0573756
19.4109 10.2008 16.0904 0.885133 -0.451526 0.112533
19.4232 7.87596 16.2881 -0.960599 0.234216 -0.14964
19.7377 5.26725 11.7664 0.715309 -0.616266 -0.329467
19.7739 4.48546 11.7579 -0.904411 0.383479 -0.187042
19.527 10.1188 15.0628 -0.390222 0.893278 0.223118
19.5442 8.94728 16.1772 -0.692907 -0.0442018 -0.719671
19.734 7.91281 11.3646 0.409319 -0.00141356 0.91239
19.7666 7.28398 11.6721 0.303662 -0.000632955 0.95278
19.8549 8.33526 11.5485 0.409319 -0.00141356 0.91239
19.877 7.79267 11.5811 0.424986 -0.235717 -0.873971
19.737 10.3412 15.5291 -0.390222 0.893278 0.223118
20.0983 5.76219 11.5604 0.0167186 0.2404 0.97053
20.0994 4.92473 12.0631 -0.0737814 0.0937823 0.992855
19.9103 9.68778 12.8127 0.593731 -0.775056 0.216269
20.1377 8.06702 11.5202 0.409319 -0.00141356 0.91239
20.2556 5.18633 12.0694 0.715309 -0.616266 -0.329467
20.7177 2.57279 22.4759 -0.0180341 -0.211428 -0.977227
21.0757 0.428008 19.9056 0.465317 0.838755 -0.282788
21.0649 0.63701 20.9127 0.267736 -0.889341 -0.37066
21.0856 1.6534 22.6616 0.0226739 -0.276388 -0.960779
21.3844 1.66132 22.6846 -0.0366788 0.267955 0.962733
21.6159 -0.0356476 18.8221 0.0365687 -0.985536 0.165477
21.4066 3.93562 22.2805 0.411889 0.0303172 0.91073
21.4235 3.59564 22.3408 0.0097215 0.0752035 0.997121
21.4917 2.18714 22.5817 0.00232823 -0.24257 -0.970131
21.6309 1.73622 22.6685 -0.0366788 0.267955 0.962733
22.0073 -0.207126 18.6371 -0.0328705 0.985538 -0.166236
21.9968 -0.0787051 19.1475 0.555354 -0.654346 0.513239
21.783 4.02588 22.3324 0.644809 -0.0177232 0.764138
22.1413 -0.367491 18.1491 -0.252037 0.966977 -0.0378438
22.1254 -0.132221 19.1241 0.555354 -0.654346 0.513239
22.0724 0.650101 22.167 -0.204741 0.974586 -0.0908999
22.0139 1.82852 22.7183 -0.723424 -0.0459452 -0.688874
22.3278 -0.38729 17.5086 -0.446221 -0.876473 -0.180779
22.1846 3.24343 18.4481 0.966825 -0.141187 0.212876
22.1718 3.37229 19.5351 -0.961196 0.246937 -0.122978
22.2241 2.14197 19.7495 0.946004 -0.211595 0.24557
22.124 3.89889 20.5336 -0.937635 0.229743 -0.260881
22.3229 0.494878 21.2507 -0.568092 0.81617 -0.105537
22.3252 0.727202 22.3248 0.675546 -0.571977 0.465274
22.3172 0.852641 22.659 -0.517832 0.212059 -0.828783
22.6665 2.65484 17.9731 -0.993613 0.110293 -0.0238591
22.6519 0.99687 18.9823 -0.930672 0.297756 -0.212584
18.8528 0.329251 16.4106 -0.719638 -0.693537 -0.0335674
18.8608 0.236948 16.6615 -0.303897 0.938583 -0.16343
18.7606 2.24871 17.4609 0.88107 -0.0516208 0.470161
18.8692 0.383521 16.911 -0.303897 0.938583 -0.16343
18.7998 1.96628 17.3413 0.88107 -0.0516208 0.470161
18.8596 0.497742 17.3918 0.459554 0.859355 -0.224318
18.8425 0.882823 18.3752 -0.96987 0.235441 0.0626068
18.8379 1.41118 20.8592 -0.800276 -0.509386 0.316362
18.7968 2.71643 22.2493 -0.787446 0.367204 -0.495066
18.9749 0.613214 17.793 -0.950649 0.134772 0.279469
18.8363 3.82592 21.8883 -0.929284 0.369017 0.0160396
19.1 2.0393 17.2909 0.88107 -0.0516208 0.470161
19.1401 1.12579 17.672 0.975051 -0.221247 -0.018046
19.0861 1.1381 17.8859 0.910351 -0.345054 0.228472
19.1574 1.21461 18.3201 0.914397 -0.401041 0.0551688
19.0271 3.25662 20.6845 0.833473 -0.0255522 0.551969
19.1223 1.1368 20.6323 0.584068 0.800485 0.134489
18.9614 3.56898 21.0701 0.864564 -0.468115 0.182752
19.0037 4.15568 21.0501 -0.942184 0.0329893 -0.333467
19.114 2.10268 20.9922 0.989603 0.0661163 -0.127726
19.1406 2.10513 21.2464 0.761166 0.0278642 0.647958
19.0196 4.23792 21.4425 0.988535 -0.119288 -0.0925678
19.0666 2.96617 21.4211 0.920515 -0.016321 0.390367
19.2881 0.56098 18.511 -0.367998 -0.784716 0.498797
19.3043 0.908535 19.1269 -0.960132 0.196668 -0.198665
19.123 2.96071 20.7013 -0.935755 -0.187878 -0.298438
19.1127 3.11464 21.3304 0.97373 0.000730486 0.227703
19.2053 2.25779 21.49 0.788739 -0.547205 -0.280103
19.3943 0.674585 16.1885 -0.159158 0.543376 0.824264
19.4477 0.0950788 16.8449 0.111583 -0.972462 -0.204615
19.3788 0.984213 17.4969 -0.906512 0.376013 -0.191964
19.4072 0.986361 18.8072 0.842987 -0.399648 -0.360075
19.389 1.23482 19.3442 -0.874391 0.467109 -0.131336
19.3296 2.37157 21.2152 0.875083 -0.436055 0.209966
19.3241 1.35178 21.7584 -0.930967 -0.351578 0.0984529
19.5417 1.44494 19.5393 0.687147 -0.702378 0.185724
19.6747 0.678833 16.4787 -0.957509 -0.216809 -0.190188
19.7006 0.262314 16.8972 0.171774 -0.775773 -0.607182
19.6237 0.833567 20.0007 0.686117 0.697598 -0.2064
19.4942 3.75771 21.6331 0.507987 -0.201453 0.837476
19.8236 0.475625 16.498 -0.957509 -0.216809 -0.190188
19.8203 0.132433 17.4875 0.321287 0.942541 0.0916027
19.8304 0.59253 18.2476 -0.502655 0.85961 0.0916998
19.8314 0.703685 19.0295 -0.702271 0.00989438 -0.711841
19.8094 1.19489 19.144 -0.939858 -0.0603205 0.336197
19.7961 0.617494 19.2945 -0.959518 -0.15323 -0.236319
19.7737 1.41699 19.7191 -0.604233 -0.783261 0.146302
19.8111 1.23887 19.7742 0.827968 -0.182704 -0.530177
19.7321 2.7128 21.1571 0.920515 -0.016321 0.390367
19.6978 1.39853 21.6357 0.757752 -0.603443 -0.24833
19.6746 4.09542 21.951 -0.884851 -0.277495 -0.374214
19.6382 3.99683 22.2613 -0.353404 -0.845432 0.400438
19.7346 3.38428 20.8045 0.719505 -0.563269 -0.406253
19.778 2.42502 21.0373 -0.833749 -0.146391 -0.532383
19.8307 1.69198 21.2557 -0.760571 -0.488049 0.428182
19.8307 1.69198 21.2557 -0.760571 -0.488049 0.428182
19.799 1.949 21.9 0.35581 0.884789 -0.300912
19.8157 2.62755 22.3928 -0.0198329 -0.20851 -0.977819
20.0918 -0.0493368 17.0245 -0.716111 0.686953 -0.123615
20.0662 0.332246 18.521 -0.321385 0.94489 0.0624013
20.0302 0.898779 20.7449 -0.143795 0.989596 -0.00468827
20.1891 0.38586 18.8712 0.114182 -0.993354 0.014515
20.1664 0.747206 20.2979 -0.595534 0.769201 0.231665
20.0596 2.74821 22.3919 -0.0198329 -0.20851 -0.977819
20.2837 1.94666 21.0753 -0.389407 0.46801 0.793302
20.1929 1.72611 21.8757 0.973804 -0.0217951 0.226343
20.4044 0.762917 19.9983 0.260226 0.227235 0.938428
20.2391 3.50525 21.3597 -0.312944 0.831539 -0.458922
20.3418 1.61636 21.5589 0.306584 0.909362 -0.281187
20.2085 3.82668 21.8748 0.288206 0.901085 -0.324012
20.3795 2.48934 22.4347 -0.0138189 -0.211324 -0.977318
20.3467 2.08327 22.4969 0.789122 -0.0189037 -0.613946
21.0684 -3.69054 12.012 -0.104495 -0.163845 0.980936
20.8751 1.68378 12.5274 -0.141805 0.321807 0.936126
21.0676 -1.35029 12.8227 -0.399246 0.784425 0.474636
21.132 1.77426 12.7536 -0.874256 -0.416366 0.24963
21.4376 -1.0452 12.8016 0.0128938 0.232197 0.972583
21.7462 -1.09137 14.1552 -0.908861 0.386037 -0.157944
21.6755 -0.993829 15.0935 -0.00878289 -0.985329 0.170439
21.665 -0.823208 15.716 -0.0325283 0.982044 -0.185828
21.907 -0.232291 12.7075 0.38944 -0.364875 -0.845697
21.9161 -1.71034 13.6678 0.764639 -0.62261 -0.166385
22.0336 -0.195456 12.7098 0.162598 -0.22205 0.961382
22.0875 -1.33041 12.9048 0.00996778 0.0358584 0.999307
22.0762 -1.14755 12.8722 0.00996778 0.0358584 0.999307
21.8168 3.16344 14.21 -0.919476 0.340783 -0.196037
22.0775 -1.30329 14.3323 -0.908861 0.386037 -0.157944
22.0646 -1.11897 15.0563 -0.00878289 -0.985329 0.170439
22.0572 -1.00541 15.5046 0.908706 -0.380938 0.170706
22.0559 -0.983656 15.5922 0.908706 -0.380938 0.170706
22.0565 2.92091 13.0965 -0.919476 0.340783 -0.196037
22.2266 -0.470425 13.6805 0.959989 -0.276485 0.0444665
22.0416 3.30215 14.123 -0.919476 0.340783 -0.196037
22.1814 1.14142 12.7932 0.605384 0.0085069 -0.795888
22.2558 -0.0903206 12.9817 0.822454 -0.313197 -0.474845
22.2932 -0.776871 13.0258 0.950173 -0.296804 -0.0952873
22.1713 1.26115 13.2421 0.983532 -0.173801 -0.0495855
22.0955 2.86978 13.3508 -0.919476 0.340783 -0.196037
22.1562 1.7749 13.5377 -0.734854 -0.115674 0.668288
22.2147 0.692987 13.8188 0.960286 -0.248961 0.125974
22.2754 -1.17031 13.8115 -0.914292 0.375612 -0.151611
22.2754 -1.17031 13.8115 -0.914292 0.375612 -0.151611
22.2602 -0.580017 14.8037 0.91394 -0.394844 0.0938732
22.1723 1.1012 15.6045 0.6622 -0.536362 0.523265
22.2023 2.74431 16.2603 0.967074 -0.24351 -0.0739696
22.2168 2.2973 16.3408 -0.960512 0.25613 -0.108691
18.9767 -3.0994 11.4975 -0.104495 -0.163845 0.980936
18.7669 1.20733 12.3953 -0.560363 0.193351 -0.805363
18.8654 -0.63291 12.7918 0.50002 -0.0268802 0.865597
18.8525 -0.382183 13.0583 0.50002 -0.0268802 0.865597
18.876 -0.562722 13.8128 -0.290847 0.532983 -0.794567
18.8675 -0.331375 14.0998 -0.224837 0.670151 -0.707351
18.8692 -0.319934 14.2623 -0.224837 0.670151 -0.707351
18.856 0.0972705 15.5283 0.527735 -0.297223 -0.79571
18.8528 0.188031 15.7891 -0.925889 0.36588 -0.0941357
18.7936 3.6532 12.1634 0.455221 0.289016 0.842166
19.0741 1.28657 12.6128 0.362648 -0.141487 0.921123
19.1289 -0.824681 13.1573 0.945606 -0.0429351 0.322469
18.9237 4.29921 15.1849 0.993896 0.086719 0.0681946
19.3137 0.694912 12.7085 -0.436689 -0.178283 -0.88177
19.3855 -0.900764 12.7634 -0.238621 0.0879642 -0.967121
19.3091 1.80242 12.9359 0.8906 -0.443609 0.100218
19.2671 1.92679 13.2516 0.8906 -0.443609 0.100218
19.287 0.593804 15.7673 -0.88632 0.431615 0.167763
19.3156 3.34694 12.2591 0.455221 0.289016 0.842166
19.5657 1.92334 12.863 -0.840415 -0.256221 -0.47755
19.8252 1.84298 12.4074 0.574811 0.0877803 0.813564
19.8665 1.01072 12.4264 0.374919 -0.234648 0.89687
19.8486 -0.557051 12.7836 0.429873 0.0146028 0.902771
19.7995 3.33142 12.7135 0.455221 0.289016 0.842166
20.0813 -1.02491 12.9992 0.32579 -0.227983 -0.917543
19.9416 -0.278597 15.9283 -0.0530404 -0.855803 0.514575
20.2942 0.825743 12.3334 0.374919 -0.234648 0.89687
20.2854 1.25015 12.6867 0.567402 -0.550679 0.612214
20.4284 1.26806 12.5483 0.229034 -0.117206 -0.966336
20.6796 -1.26522 12.8286 0.479117 0.486169 0.730812
20.6574 1.91294 12.269 0.396184 0.0902097 0.913729
20.611 9.12661 22.2892 0.945209 -0.1439 0.293041
20.8816 9.02773 20.9981 -0.00255456 -0.274305 -0.961639
21.1449 6.77607 21.8053 -0.104175 -0.738266 -0.666417
21.0907 10.9903 19.369 0.461986 0.885162 -0.055286
21.0726 11.2596 20.4361 0.760681 -0.539061 -0.361631
21.4766 5.50801 21.4251 -0.988922 -0.0674523 0.132225
22.0143 4.9788 17.59 0.964671 -0.243485 0.100621
21.998 5.24569 18.1303 -0.952169 0.279536 -0.123425
21.7595 10.3214 18.9 -0.971344 -0.220046 -0.0898382
22.0508 4.608 18.702 0.96133 -0.239925 0.135206
22.0369 4.83719 18.8911 0.96133 -0.239925 0.135206
21.8436 9.1668 21.1867 -0.547203 0.461574 0.698225
22.1044 4.96336 21.3472 -0.0815676 -0.812878 0.576694
21.9846 6.64136 21.4985 -0.401168 -0.232433 -0.886024
22.1098 4.74411 18.146 0.960559 -0.251652 0.118316
22.0674 5.55087 18.0589 -0.952169 0.279536 -0.123425
22.0756 5.18721 20.3859 0.192523 0.958334 0.211022
21.9435 7.64811 21.4669 -0.367605 -0.0931955 -0.9253
22.1068 4.37845 21.9148 0.852105 -0.140087 0.504275
18.0267 10.9981 16.7675 0.135877 -0.116548 -0.983847
18.508 9.40858 17.6846 -0.953616 0.244554 -0.175526
18.5681 5.7438 17.7246 0.68527 -0.527901 0.501723
18.5246 6.53268 17.95 0.359961 0.585441 0.726421
18.7038 10.4963 16.7297 -0.616354 -0.601834 0.507842
18.9484 10.9774 16.8397 0.0813921 0.0943888 0.992203
19.0658 5.51292 16.7358 0.888401 -0.0973023 -0.448639
19.0099 6.39946 19.2299 -0.950443 0.226257 -0.213229
18.9132 10.6461 19.9448 0.975542 0.109566 0.190561
19.3152 8.57048 16.6491 0.836713 -0.215217 0.50358
19.0619 11.6501 17.7448 -0.605763 0.318768 -0.728998
19.5379 4.67389 17.5014 0.889362 0.0240774 0.456568
19.2142 10.543 21.0136 -0.814064 -0.0328224 -0.579848
19.2424 6.65969 21.6537 0.069563 0.156712 0.985191
19.5572 6.22738 17.4157 -0.785348 -0.216503 -0.579961
19.406 10.081 18.2046 0.86931 -0.478027 -0.125658
19.2328 11.3604 19.5469 -0.748262 0.651281 -0.126241
19.9547 10.7168 16.9448 0.72447 -0.592604 -0.352084
19.9676 10.7674 17.1681 0.72447 -0.592604 -0.352084
20.2797 4.93671 16.99 0.651707 -0.49228 -0.577008
19.9275 11.2881 19.2148 0.629782 -0.620115 0.467795
20.422 5.75393 17.093 0.871215 0.0852843 0.483437
20.1441 9.59313 21.2639 -0.232083 -0.169998 -0.957725
20.7286 6.20201 11.6447 0.122605 0.224958 0.966624
21.0917 6.37145 11.5331 -0.0169999 0.254894 0.96682
21.1883 9.52353 14.0832 0.197336 0.969474 -0.145527
21.5276 10.1664 16.5683 -0.990855 0.08175 -0.107343
21.7974 8.27849 11.6683 0.0908943 0.0349706 0.995246
21.7841 9.04492 13.4364 -0.974402 -0.163882 -0.153896
21.7823 9.02531 13.6079 -0.974402 -0.163882 -0.153896
21.7913 9.13132 14.8834 -0.99031 0.134578 0.0342777
21.7717 9.54943 15.5357 0.960414 -0.263491 0.0904329
21.7706 9.7449 16.6742 -0.969513 0.206628 -0.13172
18.3983 8.12744 14.0033 -0.980402 0.196605 0.0125904
18.7565 6.43359 11.4519 0.532113 0.0431992 0.845571
19.035 9.62421 12.6284 -0.590911 0.783164 0.193592
19.4746 5.92368 11.4756 -0.0143347 -0.153911 -0.987981
19.5271 3.95187 12.1908 0.535406 0.0005753 0.844595
19.4431 6.12625 13.1643 -0.929951 0.361731 0.0658929
19.1491 8.88899 14.6668 -0.92192 0.387372 -0.0025195
19.479 6.12223 16.0917 -0.39251 0.819693 -0.41718
19.1142 9.86606 16.2716 -0.951207 0.250488 -0.180169
19.6151 4.38893 11.5293 0.958645 -0.257376 0.121483
19.6484 4.1027 12.1734 0.913467 -0.406839 -0.00778301
19.5829 6.00657 15.7164 -0.108268 -0.746176 0.656886
19.8023 8.87956 16.2125 -0.692907 -0.0442018 -0.719671
20.1566 9.721 13.2355 0.428464 -0.902607 0.0414697
20.2727 9.76295 13.9702 -0.355839 0.93426 -0.0231507
20.5 6.87317 11.4605 -0.432608 -0.00890363 -0.901538
20.5334 5.91839 16.3368 0.0909017 0.952828 0.28958
21.2916 1.03699 22.3381 0.0239753 0.410282 -0.911643
21.3662 2.06303 22.5939 0.00232823 -0.24257 -0.970131
21.844 1.44581 22.7608 0.638968 -0.282379 0.715529
22.1347 2.8838 16.8452 0.965727 -0.259443 0.00779202
22.0978 3.72289 18.2087 0.962492 -0.241256 0.124114
22.352 -0.619266 16.7483 0.212465 0.907014 -0.363571
22.3002 0.39888 19.6576 -0.609543 0.636849 -0.472103
22.3082 0.738325 21.605 -0.948294 0.282843 -0.144007
22.1749 3.09848 22.189 0.0097215 0.0752035 0.997121
22.2643 1.44636 22.3457 0.632019 0.00825519 0.774909
18.8299 1.37076 19.8973 -0.642533 -0.437695 -0.628947
18.7714 2.33065 20.5554 -0.787115 0.599931 0.143289
19.0633 3.74409 17.1791 0.890603 -0.44013 0.114508
18.9618 1.97782 21.5164 0.638867 0.768835 0.0272338
19.3663 -0.0975761 15.9681 0.633536 0.773643 0.0104416
19.302 0.388732 17.8348 0.140245 -0.95209 0.271766
19.1463 4.48112 21.6059 0.988535 -0.119288 -0.0925678
19.2222 4.19177 22.0773 0.986719 -0.123118 -0.105963
19.2939 2.80662 22.3154 0.0107694 -0.209954 -0.977652
19.3571 4.4611 18.9299 -0.64836 0.735316 0.197329
19.6237 1.268 21.7537 0.546238 -0.370397 -0.751285
19.7264 3.63182 20.8275 -0.240974 -0.289177 -0.926449
20.1296 1.4014 22.1798 -0.761953 0.4135 0.498443
20.3266 -0.0182218 16.3567 0.976225 -0.136132 0.168678
20.396 0.395402 17.9628 0.00805496 -0.990912 -0.13427
20.1978 1.6212 21.4358 0.306584 0.909362 -0.281187
20.6232 0.296962 17.2719 -0.836755 0.540413 0.0882871
20.5547 1.05334 20.2138 0.632835 0.335312 0.697916
20.6086 3.59831 22.2941 -0.114301 0.938303 -0.32638
20.8388 0.759077 12.5623 -0.23367 0.204101 -0.950653
20.9363 -0.959181 12.7564 -0.786617 0.617035 0.0223773
21.5687 -3.81981 12.0827 -0.104495 -0.163845 0.980936
21.6087 0.727199 12.5258 -0.195187 0.259001 0.94595
21.7774 -0.196988 12.6913 0.38944 -0.364875 -0.845697
21.69 -1.04325 12.8233 0.00996778 0.0358584 0.999307
21.4515 3.63671 15.5204 0.990317 -0.104414 0.0914927
21.8186 3.18494 14.2887 -0.919476 0.340783 -0.196037
22.1886 1.01135 12.8798 0.681616 -0.176792 -0.710032
22.0471 3.05613 13.0804 -0.919476 0.340783 -0.196037
22.238 0.256693 13.0047 0.807688 -0.297617 -0.508983
22.143 2.11069 13.6617 -0.839188 0.343123 0.421936
22.1275 3.14648 16.0771 0.967074 -0.24351 -0.0739696
18.5993 4.14509 12.3843 0.730337 -0.127541 0.671074
18.6281 3.71922 12.7827 0.455221 0.289016 0.842166
18.8768 -0.631801 13.792 -0.290847 0.532983 -0.794567
18.853 0.163973 15.44 0.851694 -0.290046 0.436452
19.2121 -0.164511 14.5189 -0.0194895 0.735876 -0.676835
19.6302 -3.25843 12.0452 -0.104495 -0.163845 0.980936
19.3864 -0.585566 14.0341 -0.224837 0.670151 -0.707351
19.5312 1.26248 14.7612 0.943437 -0.213975 0.253261
19.8502 -0.716348 13.0078 0.478955 0.0965102 0.872518
19.807 -0.108746 15.0578 0.326086 0.928293 0.178716
20.0107 1.48044 13.2554 -0.849141 -0.338933 -0.405072
20.5065 -0.26244 12.5951 0.213354 0.20806 0.954563
20.3904 -0.503282 15.4958 -0.129087 -0.991583 0.00999558
20.6214 0.0421589 12.5534 -0.0312899 0.281397 0.959081
20.8839 -1.20292 13.3561 0.00564121 -0.787274 -0.616578
20.559 11.2517 19.8278 -0.34625 0.929652 -0.125929
20.6108 9.10192 22.3137 0.945209 -0.1439 0.293041
21.7778 9.85491 17.8261 -0.98527 0.0990284 -0.139414
22.0597 5.47957 18.0211 -0.952169 0.279536 -0.123425
19.643 10.6082 17.4321 0.418179 -0.686477 -0.594874
20.3124 5.45529 17.6068 -0.943316 0.15139 -0.295357
20.5358 5.26341 20.7395 0.0435993 -0.241807 -0.969344
20.4454 7.08199 21.6964 -0.116475 -0.277849 -0.953537
18.4862 6.07524 12.408 -0.204609 -0.860416 0.466712
18.5632 8.62066 11.3243 0.0639429 -0.135981 -0.988646
18.3993 8.15122 13.9656 -0.980402 0.196605 0.0125904
19.0603 9.34763 14.4504 -0.850557 0.27608 -0.447586
19.4563 7.40926 13.4468 0.990467 -0.096815 0.0979912
20.062 8.7932 16.1799 -0.692907 -0.0442018 -0.719671
20.3794 9.43609 12.3398 -0.238862 0.964338 -0.114009
20.5244 5.8781 16.3684 0.0909017 0.952828 0.28958
21.1118 -0.0971552 18.0214 0.517946 0.839698 0.163213
21.0827 0.247118 19.3715 -0.047416 0.972167 -0.22944
21.5841 0.386576 20.5279 -0.648766 -0.660257 0.37837
22.103 3.77741 18.7368 0.962317 -0.24726 0.113172
19.0013 1.32702 18.698 -0.866562 0.488908 0.100195
18.9337 4.09742 20.0887 0.920341 0.167087 0.35363
18.8236 2.04331 22.253 0.0510933 0.104195 -0.993244
19.7188 3.9745 20.6895 -0.984232 -0.175701 0.0204185
20.9502 -2.2516 12.7357 0.733161 -0.0478477 -0.67837
21.138 -0.159365 12.6345 -0.00143739 0.242408 0.970173
22.0829 3.52497 16.2769 -0.974236 0.220523 0.0472744
18.9462 -2.6242 11.9105 -0.104495 -0.163845 0.980936
18.8873 -0.938888 13.5923 -0.828977 0.472666 -0.298971
20.0486 1.08177 14.8684 0.746341 -0.627369 -0.222225
22.0527 4.34842 17.551 0.959048 -0.252204 0.128919
19.4598 5.4134 10.1155 0.993145 -0.089385 0.0753232
19.3451 9.23675 10.4924 0.960405 -0.124031 0.249478
19.3966 7.15937 16.4716 0.886933 -0.204818 0.414005
19.4005 4.27968 19.1067 -0.449769 0.81878 0.356801
21.3641 -2.31607 9.6977 -0.915312 0.370085 -0.158874
