ply
format ascii 1.0
element vertex 500
property float x
property float y
property float z
property float nx
property float ny
property float nz
end_header
3.64863 4.24565 0.459566 -0.204496 -0.976897 0.0620815
4.7934 3.9976 0.639 0.236158 -0.755774 -0.610767
8.12633 3.049 0.97 -0.0818454 -0.941506 0.326907
1.19217 3.29867 0.951 0.627278 -0.345954 -0.697738
0.454736 3.40468 0.931936 -0.209034 0.856842 -0.471304
0.506 3.4 0.964 -0.209034 0.856842 -0.471304
8.68 2.9405 1.001 0.44209 0.526671 -0.726067
8.95462 -0.0759231 1.22615 -0.347675 0.217105 -0.912133
9.16565 0.05048 1.34877 -0.347675 0.217105 -0.912133
9.18527 0.151234 1.34977 -0.671066 0.0832608 -0.736708
1.14705 4.70869 1.37875 -0.287498 -0.454289 0.843188
0.249012 4.87689 1.34956 0.0984668 0.535628 0.838694
9.274 3.19362 1.45363 0.465936 0.581838 -0.666609
8.75103 3.28979 1.45 0.465936 0.581838 -0.666609
6.0605 3.79178 1.44922 -0.207336 -0.931492 0.298888
0.747765 4.78241 1.44972 -0.287498 -0.454289 0.843188
2.04862 -0.249688 1.54463 0.0563002 0.00472445 -0.998403
0.0340423 0.0350092 1.55723 0.0197655 -0.0116448 -0.999737
1.72087 0.0515604 1.52511 0.0563002 0.00472445 -0.998403
9.13767 0.95925 1.55 -0.671066 0.0832608 -0.736708
0.749269 1.74847 1.57496 -0.030662 0.0272347 -0.999159
9.345 2.75487 1.5755 -0.352335 -0.685134 0.637536
9.47022 2.95322 1.57878 -0.352335 -0.685134 0.637536
8.85575 3.04033 1.57758 0.465936 0.581838 -0.666609
7.24655 3.24875 1.57725 0.169904 0.963703 -0.205936
7.24527 3.3432 1.58147 0.342063 0.907802 0.242668
6.24296 3.54858 1.58504 -0.207336 -0.931492 0.298888
5.35037 3.65086 1.59183 0.219525 0.975492 0.0149642
0.0395515 -0.892424 1.60187 -0.00468521 0.0207418 -0.999774
0.854476 1.48451 1.6107 -0.030662 0.0272347 -0.999159
0.0584541 1.65401 1.61479 -0.00987025 0.0416596 -0.999083
2.698 2.424 1.6 -0.005313 0.00296148 -0.999982
1.0593 2.6922 1.6047 0.987926 0.0872802 0.128003
3.04984 4.04778 1.6018 -0.348868 -0.883645 -0.31219
2.95042 4.14903 1.60563 -0.348868 -0.883645 -0.31219
0.848735 4.44551 1.61208 0.268916 -0.0523964 0.961737
1.44953 4.44973 1.61266 0.268916 -0.0523964 0.961737
-0.424025 4.7511 1.61972 0.0318435 0.719749 0.693504
0.6765 3.46675 1.99275 -0.914911 -0.195839 0.352967
8.54 -1.205 -1.359 0.0324641 -0.995785 0.0857853
8.042 3.4299 -1.1108 0.172871 0.917617 0.357903
6.8565 3.55572 -1.11772 0.167705 0.946344 0.276238
7.12083 3.6055 -1.10733 0.166863 0.945057 0.281111
5.34992 3.74729 -1.11492 0.161281 0.982101 0.0972888
3.92 3.896 -1.107 -0.121501 -0.980843 0.152266
1.505 1.013 -1.001 -0.218743 -0.925371 -0.309581
8.5567 1.5753 -1.05 0.388554 0.670421 -0.632109
8.5567 1.5753 -1.05 0.388554 0.670421 -0.632109
3.337 -0.7178 -0.956 -0.279223 0.0817335 0.956741
3.043 1.55975 -0.9185 -0.00227685 0.249713 -0.968317
2.728 -0.5595 -0.8985 0.349675 0.302203 0.886792
2.1795 -0.0685 -0.89325 0.760212 0.508404 0.404478
2.839 1.122 -0.8965 -0.00227685 0.249713 -0.968317
2.773 1.57733 -0.807667 -0.00227685 0.249713 -0.968317
6.16394 3.79205 -0.8508 0.177843 0.967504 0.179743
5.15093 3.98095 -0.850842 0.161281 0.982101 0.0972888
3.92895 4.20565 -0.85072 -0.0966435 -0.982314 0.160375
2.14901 4.52272 -0.85059 0.0942211 0.993867 0.0578938
4.802 -1.109 -0.758 -0.0325305 -0.00485623 -0.999459
0.758211 0.557211 -0.725421 -0.621803 0.541688 0.565628
1.228 1.004 -0.799 -0.621803 0.541688 0.565628
8.09613 -1.289 -0.62075 0.0995708 -0.994125 0.0424386
5.679 1.07617 -0.666667 0.350688 -0.0230267 0.936209
8.374 3.1296 -0.6908 0.809222 0.0937223 0.57998
8.02733 3.245 -0.6855 -0.329962 -0.592648 -0.734774
1.05475 4.54675 -0.62025 -0.147091 -0.143794 -0.978615
8.548 1.8367 -0.5189 0.388554 0.670421 -0.632109
1.35074 4.68036 -0.565944 -0.147091 -0.143794 -0.978615
8.193 -1.42114 -0.487857 0.0401492 -0.288558 -0.95662
8.28498 -0.956848 -0.477217 0.686719 0.23935 -0.686388
4.72739 0.054386 -0.489947 0.505268 -0.066236 0.860417
1.58983 0.645828 -0.450952 -0.218743 -0.925371 -0.309581
1.59891 0.701826 -0.435435 -0.218743 -0.925371 -0.309581
4.62586 1.10467 -0.443857 -0.270562 -0.0246408 -0.962387
7.25486 3.16486 -0.471714 -0.196834 0.588511 0.784163
1.73972 4.60609 -0.468017 -0.147091 -0.143794 -0.978615
8.081 -0.401 -0.314 -0.454051 -0.292706 0.841523
4.64229 -0.296571 -0.386429 -0.219952 -0.343123 0.913174
-0.3036 1.1006 -0.3292 0.360667 0.334243 0.870747
7.88325 2.72525 -0.329 -0.254405 0.0142171 -0.966993
0.947421 3.27821 -0.302632 0.320379 0.942335 0.0967613
0.843912 3.72013 -0.355276 0.568315 0.3488 0.745222
3.63827 4.1438 -0.349533 -0.189985 -0.974474 0.119606
4.05544 0.204556 -0.237389 0.312299 0.0611192 -0.948016
1.57469 3.19611 -0.290467 0.320379 0.942335 0.0967613
6.2232 3.5124 -0.2416 -0.363723 -0.916124 -0.168588
4.34807 0.0776129 -0.190903 0.505268 -0.066236 0.860417
9.3505 2.0105 -0.167 0.822949 0.0614772 -0.564779
1.41025 -0.778 -0.021 -0.111292 0.9189 -0.378467
0.74961 3.37988 -0.0503547 -0.466993 -0.840542 -0.274603
-0.0504118 4.93384 -0.0503199 0.171377 0.958939 -0.225979
-0.259167 0.246583 0.0785833 0.380951 0.426436 0.820383
0.63125 -0.888125 0.194375 -0.111292 0.9189 -0.378467
2.842 4.40009 0.159636 0.224138 0.973335 -0.0487985
1.516 1.302 0.308 0.967584 -0.251618 -0.0216652
5.77748 -7.65819 0.550296 0.223523 -0.974316 0.027309
4.98067 -7.49283 0.66 -0.157451 -0.94749 -0.278337
5.14677 -7.11727 0.664577 0.105748 0.986399 0.125832
0.19 -6.46767 0.690667 -0.0345548 0.649498 0.759577
0.274333 -6.16433 0.697667 0.594315 0.801623 -0.0647392
3.032 -7.021 0.7 -0.199788 -0.97542 0.0929522
0.759 -6.292 0.700333 -0.0345548 0.649498 0.759577
0.446359 -6.71425 0.850233 -0.0345548 0.649498 0.759577
0.907 -6.79982 0.847182 -0.0345548 0.649498 0.759577
2.58956 -7.10322 0.933 -0.199788 -0.97542 0.0929522
6.07 -7.216 1.012 0.114682 0.99335 0.0101977
8.107 -5.53285 1.25357 0.961185 0.00473388 0.275864
4.54475 -7.47878 1.34925 0.0910495 0.990007 -0.107683
4.05366 -7.38769 1.34952 0.194356 0.980931 -3.95854e-05
0.835059 -6.79256 1.34751 -0.0345548 0.649498 0.759577
7.99276 -6.15844 1.35034 0.983042 -0.0145502 0.182801
8.16862 -4.35196 1.34874 -0.936949 0.163189 -0.309025
8.77664 -2.04882 1.35005 -0.324046 0.0551895 -0.94443
5.44467 -7.44511 1.47967 0.0482303 -0.998414 0.0290417
4.452 -7.25228 1.48256 -0.237267 0.646882 -0.72474
2.85181 -6.9531 1.48486 -0.260261 -0.965534 0.00289925
4.66018 -6.51091 1.44718 0.274882 0.10799 0.955394
3.75481 -5.11624 1.47027 -0.738658 -0.120015 -0.66331
3.2509 -5.02135 1.47343 0.751706 0.0498207 -0.657614
3.35339 -3.82213 1.4777 0.681399 -0.65132 -0.333884
8.16025 -3.94158 1.51608 -0.254828 0.246066 -0.935155
8.34815 -3.05662 1.52492 -0.0188048 -0.0814592 -0.996499
7.33348 -2.25156 1.51974 -0.107648 -0.0573406 -0.992534
8.6619 -1.5513 1.5367 -0.904199 -0.252848 -0.344227
1.61418 -1.78457 -1.14432 -0.454458 -0.178057 0.872791
1.8145 -6.3365 -1.02575 -0.533145 -0.336505 -0.776222
8.754 -2.102 -1.027 0.877407 -0.474225 -0.0725822
0.424455 -5.49464 -0.943273 0.339129 -0.459191 -0.821057
0.4535 -4.5935 -0.9825 -0.104279 0.115821 -0.987781
1.52612 -3.97982 -0.949176 -0.10509 -0.121581 0.987002
1.19247 -1.89235 -0.942529 -0.469203 0.0399633 0.882186
1.71851 -5.18028 -0.834564 0.216577 0.3014 -0.928575
1.0795 -5.011 -0.887 -0.0334296 0.105711 -0.993835
0.522867 -3.88273 -0.850058 -0.104279 0.115821 -0.987781
8.399 -3.296 -0.811 0.938246 -0.119562 0.324653
7.93711 -6.42284 -0.745632 0.865692 0.258035 -0.428946
7.6 -5.997 -0.638 0.865692 0.258035 -0.428946
8.09088 -2.36325 -0.609 0.357944 0.560023 0.747161
4.44892 -7.02092 -0.548397 -0.011905 0.926253 0.376714
4.04947 -6.94543 -0.533837 -0.106324 0.936717 0.333551
7.66924 -5.45882 -0.524765 0.870909 -0.0217562 -0.490963
7.703 -5.472 -0.551 0.870909 -0.0217562 -0.490963
0.699 -4.19967 -0.512667 -0.104279 0.115821 -0.987781
8.0145 -2.8575 -0.588 0.949066 0.213217 -0.231974
6.55278 -1.93644 -0.502222 -0.255002 -0.760779 -0.596816
2.333 -1.5665 -0.5795 0.894142 -0.386505 -0.226105
1.5545 -7.175 -0.401 -0.623334 -0.503925 0.597925
2.78017 -4.34667 -0.465167 0.297789 -0.0815239 -0.951144
2.1915 -4.2235 -0.464 0.297789 -0.0815239 -0.951144
3.31525 -3.743 -0.46225 0.0365621 -0.01388 -0.999235
1.5257 -2.66165 -0.432071 0.501477 -0.491857 -0.711757
5.9055 -7.4685 -0.322 -0.0173077 -0.99919 0.0363309
3.296 -7.08867 -0.348 -0.0626477 0.99444 0.0846404
0.2597 -6.9205 -0.3866 -0.00839339 -0.0117204 0.999896
0.2901 -6.441 -0.3208 -0.00839339 -0.0117204 0.999896
1.45308 -6.44106 -0.379766 -0.623334 -0.503925 0.597925
1.04903 -6.3731 -0.376833 -0.0153403 0.498058 0.867008
4.393 -3.197 -0.399 0.430128 -0.125123 0.894055
8.0587 -2.1444 -0.3081 -0.42516 0.0136624 0.905015
4.63446 -1.726 -0.383909 -0.0322388 -0.0285221 -0.999073
1.64917 -6.74521 -0.251958 -0.623334 -0.503925 0.597925
0.5223 -6.69602 -0.252557 0.302731 -0.117599 -0.945793
8.14522 -3.33567 -0.224111 0.949066 0.213217 -0.231974
6.26691 -1.96392 -0.249642 -0.255002 -0.760779 -0.596816
5.5775 -7.42575 -0.15825 0.0219754 0.948399 0.316318
4.62377 -7.02673 -0.154833 -0.0238431 0.973628 0.226893
6.21563 -7.27172 -0.047 0.0219754 0.948399 0.316318
5.42633 -7.193 -0.0496667 -0.0332539 -0.956278 0.290561
8.48324 -2.85698 -0.0493175 0.949066 0.213217 -0.231974
2.5509 -7.0862 0.04842 0.187367 0.982013 0.0233359
1.2492 -6.44053 0.0202667 -0.0407958 0.998195 -0.0440672
8.01938 -5.94572 0.0516072 -0.885981 0.198691 0.418998
5.94257 -7.33171 0.164714 0.0219754 0.948399 0.316318
1.694 -6.48275 0.1525 -0.623334 -0.503925 0.597925
-3.5522 5.57847 0.4592 -0.148385 -0.988656 -0.023268
-6.14404 2.74898 0.650286 0.920606 -0.300584 0.249268
-5.999 3.88745 0.6535 -0.933724 -0.327524 0.144524
-4.7758 5.803 0.7144 -0.221672 -0.975115 0.00335366
-4.64657 5.77596 0.949203 0.204894 0.978691 -0.0135115
-6.43482 1.45072 1.05249 -0.983678 0.179874 -0.00489837
-1.25017 5.11912 1.04935 0.0685478 0.944964 0.319912
-1.74968 5.21358 1.05021 -0.0358115 0.999278 0.0126546
-3.81841 5.59511 1.05243 -0.183053 -0.983053 -0.00992201
-4.43459 5.70763 1.14524 0.204894 0.978691 -0.0135115
-6.49807 1.18388 1.35239 0.983519 -0.180676 0.00685338
-6.3937 1.75981 1.35092 -0.764506 0.513468 0.389721
-0.973571 5.10456 1.34816 0.126806 0.82565 0.549748
-6.60253 0.614406 1.44959 0.990748 -0.0598351 -0.121815
-6.41616 1.71481 1.4497 -0.764506 0.513468 0.389721
-5.76558 5.14571 1.44927 0.989854 -0.109035 -0.091109
-4.15203 5.68937 1.44928 -0.27963 -0.724531 -0.629969
-6.45654 -0.150865 1.59262 -0.965442 -0.0371093 -0.257962
-1.35249 0.64784 1.61873 0.197399 0.109665 0.97417
-1.3378 1.88493 1.61775 -0.0131875 0.0111583 -0.999851
-3.14841 2.22411 1.61398 0.0485887 0.176387 0.983121
-0.742125 2.99369 1.60375 -0.00542374 -0.20495 -0.978757
-5.7489 4.0644 1.6363 0.917278 -0.0830863 -0.389483
-5.5748 5.2754 1.651 -0.677707 0.493139 0.54546
-5.44647 5.64926 1.65068 0.23066 -0.8845 -0.405532
-1.94386 0.0675714 1.973 -0.289336 0.168949 -0.9422
-4.53 1.365 1.904 0.1238 -0.141901 -0.982109
-6.64843 -0.854786 -1.11086 -0.905831 0.102104 -0.41115
-6.819 -0.561 -1.107 0.97435 -0.162059 -0.156141
-4.04254 0.204769 -1.10777 0.255152 0.472798 0.843421
-6.64 -0.2888 -1.094 0.97435 -0.162059 -0.156141
-4.421 0.0843333 -1.088 0.255152 0.472798 0.843421
-6.55141 0.254227 -1.09536 0.933641 -0.259083 0.247368
-6.14783 1.352 -1.09061 -0.0749144 0.284142 -0.955851
-5.76225 4.1551 -1.0647 -0.797633 0.389757 -0.460295
-4.08625 5.64633 -1.043 0.360903 -0.562943 -0.743535
-6.398 0.684 -0.999 -0.254818 0.524114 -0.812633
-2.39233 5.133 -0.972333 0.213844 0.202817 -0.955582
-4.18467 -0.0325537 -0.850008 0.255152 0.472798 0.843421
-5.56292 0.47332 -0.85092 0.0959805 -0.223733 0.969913
-5.6 0.727 -0.892 -0.23236 0.176732 0.956438
-5.5265 1.2055 -0.8315 -0.302511 -0.0876532 0.949107
-2.96058 3.76736 -0.848515 0.25486 0.577232 0.77579
-6.01286 3.86776 -0.852734 0.943132 -0.010835 0.332241
-2.5904 4.1948 -0.887 -0.476216 0.125928 0.870264
-1.71241 4.11547 -0.832059 -0.343904 -0.266069 -0.900521
-4.66 4.201 -0.822 0.522992 -0.329988 0.785867
-4.685 4.48733 -0.8 0.280279 0.681587 0.675932
-1.64657 4.55543 -0.815 0.282931 -0.317996 0.904891
-3.48333 4.62869 -0.825396 0.348444 0.344822 0.871599
-6.45861 1.45571 -0.752463 -0.872357 0.445849 -0.200528
-6.0394 2.1296 -0.7244 -0.094414 -0.0987246 -0.990626
-3.35689 3.79444 -0.784222 -0.624989 -0.165442 -0.762901
-3.23357 4.50429 -0.784143 0.424328 0.104446 0.899465
-4.47336 4.74236 -0.742643 -0.514811 -0.48893 0.704214
-5.8895 -1.23383 -0.674167 0.542278 0.835219 -0.0913409
-6.81676 -0.442682 -0.651182 -0.991134 -0.127516 0.0373176
-5.64594 0.242333 -0.669667 0.288106 -0.124054 -0.949529
-5.83437 1.73862 -0.642125 -0.218318 -0.618325 0.754991
-5.56174 2.33642 -0.645 0.461535 -0.0463204 -0.885912
-4.214 4.396 -0.642 -0.419319 0.162864 0.893111
-5.79125 5.1045 -0.682 -0.748395 0.253089 -0.613066
-5.22285 2.5154 -0.51665 -0.823539 0.159045 0.544508
-5.81452 -0.951185 -0.452897 -0.664314 -0.0301117 -0.746847
-6.4778 -0.4414 -0.4464 -0.823124 -0.561028 0.087835
-6.15486 3.08068 -0.473179 0.88488 -0.276745 0.374699
-2.1856 4.73 -0.4598 -0.219423 0.891468 0.396408
-6.0542 -0.9384 -0.3436 -0.664314 -0.0301117 -0.746847
-6.7106 0.2246 -0.355 0.981806 -0.020039 0.188828
-6.1517 1.0554 -0.327 0.938511 0.110372 -0.327132
-6.11 1.942 -0.319 -0.17772 -0.768788 -0.614313
-5.41857 2.036 -0.317571 -0.491409 0.524238 -0.69548
-6.29137 2.259 -0.348812 -0.60221 -0.0923796 -0.792975
-5.19747 2.68283 -0.335 -0.918897 0.221011 -0.326775
-5.45125 2.75425 -0.312083 0.152566 -0.74662 0.64752
-3.54291 4.22982 -0.313901 0.348444 0.344822 0.871599
-5.55233 4.894 -0.387667 -0.619644 -0.425269 0.659688
-1.668 5.03417 -0.3045 -0.68643 -0.24217 -0.685688
-1.875 5.4045 -0.3355 -0.907595 0.372702 -0.1933
-2.5056 3.7692 -0.2884 -0.520398 -0.60592 0.601704
-3.9264 4.1084 -0.289 -0.506138 -0.485465 -0.712845
-5.0105 4.4105 -0.274 -0.768902 0.470372 -0.433058
-5.0105 4.4105 -0.274 -0.768902 0.470372 -0.433058
-4.7475 5.133 -0.2868 0.93289 -0.30263 0.195272
-3.82515 5.63809 -0.246606 -0.145109 -0.989114 -0.0244399
-6.79443 -0.33875 -0.150602 0.804269 -0.0795067 -0.588923
-6.47894 1.34875 -0.150625 0.984335 0.0391847 -0.171901
-6.01001 3.85624 -0.149 0.997495 -0.0449361 -0.0546385
-6.40499 1.72393 -0.0508333 -0.997717 0.0562472 0.0373834
-6.10707 3.3326 -0.0495747 0.845788 0.306036 -0.437018
-3.54968 5.58392 -0.0507917 -0.145109 -0.989114 -0.0244399
-4.4265 4.1025 0.09 0.380191 0.885042 -0.268618
-4.9098 5.0542 0.0138 0.392352 0.106569 0.913621
-5.94112 2.94587 0.1365 0.272208 0.940926 0.201397
-2.21017 4.30617 0.114 0.893858 -0.416168 -0.166799
-4.96075 4.674 0.12525 0.943013 -0.284857 0.171997
-1.8325 4.875 0.104 0.935539 -0.313504 0.162733
-3.805 5.598 0.190667 -0.146632 -0.988983 -0.0202813
-4.42155 5.70895 0.15015 0.348448 -0.756375 0.553606
-10.9445 -5.951 0.4604 -0.350577 0.934063 -0.0679858
-3.24609 -5.77495 0.510227 0.24173 0.966502 -0.0862589
-7.64925 -5.21732 0.54985 0.82795 0.498769 -0.256376
-3.04467 -5.56867 0.716 -0.763976 0.362391 -0.533866
-7.04987 -5.33241 0.851317 0.1747 0.984412 0.0203441
-7.202 -3.832 1.097 0.299585 -0.0715883 -0.95138
-7.23352 -2.75245 1.04887 -0.982056 0.186412 -0.0285669
-7.08484 -2.05149 1.04942 0.980697 -0.195412 0.00688407
-5.65654 -5.59094 1.24923 -0.227095 -0.936222 0.268174
-7.9624 -4.3688 1.2054 -0.669136 -0.319042 0.671171
-5.55169 -5.61374 1.34992 -0.347963 0.931601 0.105079
-7.21924 -5.30508 1.35084 -0.0859808 0.996231 0.0114534
-6.95143 -5.35578 1.34865 -0.0859808 0.996231 0.0114534
-0.96175 -4.13688 1.3105 0.21263 -0.123809 -0.969257
-7.4049 -3.66982 1.34967 0.299585 -0.0715883 -0.95138
-7.25287 -2.8534 1.34928 -0.982056 0.186412 -0.0285669
-7.15933 -2.34777 1.3495 -0.292352 0.0909869 0.951972
-7.14162 -2.24906 1.34964 -0.292352 0.0909869 0.951972
-1.04651 -5.43486 1.48507 0.21263 -0.123809 -0.969257
-6.0258 -4.5126 1.495 -0.0289425 -0.127582 0.991406
-0.654327 -4.28784 1.49158 0.21263 -0.123809 -0.969257
-3.55028 -5.65593 1.51579 0.321386 -0.859349 0.397783
-5.35 -5.35027 1.52918 -0.0552234 -0.723099 0.688533
-6.34531 -5.24906 1.53325 -0.0434014 -0.324818 0.94478
-3.44889 -5.14983 1.51414 0.188509 -0.267045 0.945067
-1.14484 -5.14613 1.5148 0.21263 -0.123809 -0.969257
-2.74977 -4.85132 1.52253 -0.469247 0.744287 -0.475231
-4.35127 -4.44922 1.52937 0.00810831 -0.00611597 0.999948
-7.04947 -4.31273 1.5078 0.275067 -0.0593423 -0.959592
-7.04947 -4.31273 1.5078 0.275067 -0.0593423 -0.959592
-6.34646 -3.2224 1.52174 -0.300003 -0.0284585 0.953514
-4.04851 -2.4295 1.51829 -0.633955 0.560384 0.532983
-1.73591 -1.82057 1.60539 0.0606909 -0.299107 0.952287
-2.396 -1.6935 1.6005 0.00224681 0.031958 -0.999487
-10.849 -6.22033 -1.16033 -0.350577 0.934063 -0.0679858
-4.77725 -5.514 -1.1615 0.187071 -0.872081 -0.452193
-7.489 -4.9235 -1.151 0.0297095 0.916361 0.399248
-7.169 -4.63675 -1.15075 0.0297095 0.916361 0.399248
-7.54033 -3.76122 -1.136 0.645512 -0.74365 -0.174067
-7.25008 -3.45017 -1.133 0.764719 -0.633428 -0.118212
-7.25782 -3.26527 -1.13055 0.764719 -0.633428 -0.118212
-6.8495 -1.84706 -1.12044 -0.0913588 -0.922089 0.37604
-6.75855 -1.55517 -1.11856 0.236811 0.0343124 -0.97095
-1.15487 -5.98868 -1.05076 0.453361 0.818446 0.353
-4.5705 -5.32575 -0.91675 -0.190713 0.944813 0.266378
-7.71912 -4.53525 -0.95 0.331989 0.252535 0.908851
-0.626 -2.60325 -0.91275 0.549317 -0.110767 0.82824
-5.35311 -5.209 -0.750429 -0.292673 -0.892666 -0.342767
-7.66519 -5.02558 -0.753064 0.164473 -0.971633 -0.169938
-3.77113 -5.04012 -0.712 -0.405527 -0.00737073 0.914053
-3.65529 -4.68122 -0.739077 -0.405527 -0.00737073 0.914053
-5.98583 -1.69083 -0.763 0.312115 0.397771 -0.862765
-1.40569 -5.94569 -0.652308 0.453361 0.818446 0.353
-3.479 -5.179 -0.506571 -0.640322 -0.37666 -0.669414
-3.4206 -5.7402 -0.3078 0.242466 0.848105 0.471092
-4.6235 -5.65625 -0.30625 -0.307048 0.912927 0.268859
-6.978 -5.113 -0.377 0.0548163 0.940511 0.335313
-1.3025 -5.50925 -0.2715 0.453361 0.818446 0.353
-7.601 -4.868 -0.211 -0.052693 -0.974597 0.217679
-7.02062 -1.54915 -0.281275 -0.894939 0.443685 -0.0471946
-4.706 -5.823 0.022 -0.307048 0.912927 0.268859
-4.14386 -5.45209 0.0322727 -0.653668 0.631677 0.416777
-4.03825 -5.63735 0.144526 0.0618629 -0.986945 0.148706
-7.6832 -5.14906 0.248685 0.696724 0.626662 0.349098
-2.95931 -6.05178 0.346972 0.146374 0.940037 0.308068
6.0145 4.83625 0.618 0.165798 0.23487 0.957782
6.17981 3.31722 0.821437 -0.228343 -0.973474 -0.014435
2.86978 4.3837 0.947606 -0.826824 -0.555093 -0.0907388
9.38621 1.24969 1.05182 0.957011 -0.140589 0.253701
9.60719 2.45319 1.05179 -0.484457 -0.576388 0.658087
1.2095 3.99525 1.15925 -0.524036 0.334322 -0.783336
1.24835 -0.450141 1.54614 0.0263653 -0.0465071 0.99857
1.54815 0.149538 1.54538 0.0563002 0.00472445 -0.998403
8.75228 0.65 1.54967 -0.671066 0.0832608 -0.736708
0.548751 0.848493 1.56544 0.0244522 0.00681958 0.999678
0.848847 1.04859 1.56379 0.0244522 0.00681958 0.999678
6.74409 3.35178 1.58191 0.340721 0.848599 -0.404709
0.68 3.84057 1.63114 -0.868322 0.492254 -0.0608467
3.061 3.895 1.6 -0.348868 -0.883645 -0.31219
0.857795 0.189701 1.6145 0.00456639 -0.0176625 0.999834
2.03351 0.0299539 1.61083 0.0563002 0.00472445 -0.998403
1.14458 2.72533 1.61307 0.987926 0.0872802 0.128003
4.521 3.782 1.605 -0.136411 -0.949085 -0.283953
-0.262067 4.53928 1.61358 0.0784132 0.54911 0.832063
8.558 -1.1905 -1.3615 0.0324641 -0.995785 0.0857853
6.28733 -0.092 -1.03933 -0.00282403 -0.0715268 -0.997435
0.947978 0.24915 -1.128 -0.621803 0.541688 0.565628
2.04867 0.449225 -1.13195 0.75069 0.607724 0.259108
8.10493 -1.31165 -0.849226 -0.803277 0.492577 -0.334835
8.89038 -1.269 -0.639042 0.0154147 0.997843 0.0638047
0.965586 -0.9526 -0.750138 0.287598 -0.662842 0.691323
1.85236 1.84127 -0.751227 -0.0291664 -0.127991 -0.991346
7.91055 2.32303 -0.666655 0.563881 0.0394556 0.824913
5.55 -1.35125 -0.441437 -0.0673622 0.565311 0.822123
9.7795 -0.308 -0.5215 0.351636 -0.796498 -0.491877
-0.18817 -0.088617 -0.407936 0.380951 0.426436 0.820383
7.71617 3.50317 -0.430167 -0.329962 -0.592648 -0.734774
1.95146 4.55588 -0.549539 0.0942211 0.993867 0.0578938
2.104 -0.32 -0.3355 -0.560138 -0.521656 -0.643522
7.554 0.289 -0.308 -0.417129 -0.328989 0.847213
9.146 1.751 -0.391 0.762356 -0.0762241 -0.642653
8.90129 -1.30457 0.141 -0.579961 -0.539763 0.610165
8.94594 -1.05527 0.153875 -0.579961 -0.539763 0.610165
0.576222 -0.827667 0.181667 -0.382464 -0.76857 0.512855
9.37364 1.25367 0.149875 -0.733103 0.482786 0.479038
1.81267 -0.803 0.324 0.453328 0.441812 0.774142
6.666 3.705 0.265 -0.180258 -0.967319 -0.178329
3.4365 -7.13775 0.5595 0.208587 0.973002 0.0987826
3.84878 -7.34398 0.850105 0.194356 0.980931 -3.95854e-05
8.10075 -4.702 1.053 0.975798 -0.181413 0.122099
8.79306 -1.968 1.3528 -0.324046 0.0551895 -0.94443
6.902 -7.473 1.475 -0.0588451 0.99595 0.0679711
7.743 -5.5085 1.5 -0.621057 0.00967456 -0.783706
7.687 -5.31 1.4985 -0.621057 0.00967456 -0.783706
7.64793 -3.85893 1.51453 -0.254828 0.246066 -0.935155
8.15014 -3.14293 1.51729 -0.0129401 -0.0591596 0.998165
8.259 -1.85439 1.52822 -0.0935392 0.00414178 -0.995607
4.9405 -4.184 -1.1875 -0.142276 0.217144 -0.965715
3.005 -7.0295 -0.9795 0.151034 0.889541 0.431168
7.6 -5.997 -0.638 0.865692 0.258035 -0.428946
2.54716 -7.08668 -0.435116 -0.0693889 -0.997415 -0.0186408
-0.424944 -6.11185 -0.464204 0.0894127 0.89622 0.434505
2.5688 -5.163 -0.4456 0.186262 0.276169 -0.942888
6.2555 -3.62 -0.56775 0.258525 0.171271 -0.9507
2.12375 -1.8145 -0.406 0.894142 -0.386505 -0.226105
7.421 -1.8565 -0.5525 0.0111872 -0.0801138 -0.996723
0.3522 -6.9219 -0.3816 -0.00839339 -0.0117204 0.999896
-0.152573 -6.16579 -0.363581 -0.297964 -0.182193 0.937029
2.055 -2.25331 -0.33025 -0.826769 0.557712 -0.073549
6.26712 -1.96337 -0.0495701 -0.255002 -0.760779 -0.596816
8.10231 -5.50756 0.247688 -0.966411 0.0395565 0.25394
8.0969 -4.68971 0.343286 0.980109 -0.0333173 -0.195642
4.3535 -7.3645 0.404375 -0.0479581 -0.940083 -0.337556
2.2155 -1.703 0.4145 0.982875 0.167643 0.0765063
-5.54322 5.44741 0.851859 0.569546 -0.821635 0.0230718
-4.05263 5.64162 0.949449 -0.183053 -0.983053 -0.00992201
-4.787 5.8 1.302 -0.287376 0.793685 0.536172
-1.65006 -1.15006 1.55985 0.0147673 -0.184059 0.982804
-0.649692 0.348898 1.56749 0.024753 -0.0103355 0.99964
-6.668 -1.007 1.6 0.933099 -0.33669 0.12636
-5.65152 2.2509 1.60864 0.750279 -0.482157 -0.452334
-5.45385 4.45265 1.63527 0.0695061 -0.0286117 -0.997171
-2.14815 4.94837 1.62057 -0.0358115 0.999278 0.0126546
-4.55138 5.25 1.63003 0.158783 0.830254 0.53429
-5.6755 3.0576 -1.0763 -0.720062 -0.511678 -0.468717
-4.398 3.742 -1.084 0.638097 0.301678 -0.708395
-1.69 -0.2965 -0.816 -0.402184 0.0141885 0.915449
-4.98549 4.839 -0.943886 0.928963 -0.0982743 0.35689
-6.99553 -1.41693 -0.725667 0.929332 -0.11032 0.35238
-6.6 0.692833 -0.750667 -0.965066 0.256573 0.0530885
-1.265 4.7 -0.706 0.282931 -0.317996 0.904891
-1.73027 5.25089 -0.65534 0.277231 -0.334427 0.900723
-3.76303 5.62667 -0.64955 -0.135466 -0.990778 -0.00288673
-0.794 1.598 -0.552 0.814898 0.291282 -0.501095
-5.79149 5.05321 -0.450145 -0.196768 -0.895963 0.398161
-2.15063 3.77639 -0.285587 -0.347966 -0.918505 -0.187797
-5.45728 5.44092 -0.04666 0.238758 0.734619 -0.635083
-6.55023 -1.148 0.032029 0.21875 0.0411624 0.974912
-6.16632 0.6456 0.1082 -0.99847 -0.0508562 -0.021715
-4.993 4.558 0.012 0.943013 -0.284857 0.171997
-6.111 -0.178 0.28 0.547502 0.255514 -0.79684
-5.489 3.142 0.266 0.607568 0.627734 0.486633
-2.06905 5.3038 0.411 0.953332 -0.299408 -0.0388924
-4.61803 -5.65141 0.447594 0.309006 -0.937838 -0.158034
-7.12047 -5.30279 0.461105 0.691911 0.135076 -0.709234
-10.9415 -5.94763 0.848313 -0.350577 0.934063 -0.0679858
-4.34669 -5.8266 1.05014 0.136935 0.982637 -0.12519
-5.65496 -5.58956 1.14888 -0.227095 -0.936222 0.268174
-6.94805 -5.35219 1.04939 -0.0859808 0.996231 0.0114534
-0.621152 -2.61022 1.04672 0.2898 -0.0758066 0.95408
-0.9418 -4.0488 1.313 0.21263 -0.123809 -0.969257
-3.7509 -5.54717 1.517 0.120091 -0.861983 0.492508
-0.85016 -5.46296 1.48264 0.21263 -0.123809 -0.969257
-4.85346 -5.34977 1.52823 -0.0305113 -0.74852 0.66241
-2.28347 -4.73488 1.52512 0.107977 0.679674 -0.725524
-1.14992 -2.05079 1.56093 0.0606909 -0.299107 0.952287
-0.548857 -5.74225 -1.18407 0.00668013 0.751683 0.659491
-1.22147 -5.25533 -1.17567 0.453361 0.818446 0.353
-7.63775 -3.7795 -1.138 0.645512 -0.74365 -0.174067
-6.73953 -1.9532 -1.12067 -0.189461 0.484478 0.854041
-6.93129 -3.04481 -0.854813 0.815071 -0.579325 0.00648717
-10.9013 -5.695 -0.6515 -0.350577 0.934063 -0.0679858
-7.401 -3.596 -0.735667 0.764719 -0.633428 -0.118212
-4.75332 -2.94263 -0.550638 0.0409788 0.189188 0.981085
-7.245 -4.84305 -0.38081 0.1992 0.902891 0.380931
-6.692 -2.537 -0.384 0.979692 0.0466981 0.194996
-4.0068 -4.771 -0.1724 -0.72521 -0.266725 -0.634766
-6.25125 -5.46983 0.149188 0.224436 0.960358 0.165353
-7.1 -2.10529 0.0607143 -0.992835 0.0772903 -0.0911302
-5.75289 -5.56328 0.250462 0.225331 0.974238 -0.00928223
-7.591 -4.586 0.413333 -0.853699 -0.520299 -0.0220753
9.4815 1.84757 0.64625 0.974196 -0.126464 -0.186944
5.9745 4.8665 0.617 0.165798 0.23487 0.957782
8.24418 -0.544882 1.54247 -0.290039 0.00756573 -0.956985
1.932 -0.006 1.602 0.0563002 0.00472445 -0.998403
8.54057 -0.682 -0.105571 -0.698439 -0.657488 0.282653
1.252 -0.17 0.229 -0.150644 -0.240417 -0.958909
0.576548 3.39633 0.409476 -0.166575 -0.985842 0.019194
3.05017 4.3569 0.409878 -0.278471 -0.955627 -0.0960737
2.22333 -5.85633 -1.201 -0.90348 0.410952 -0.121832
6.14363 -7.3242 -1.05053 -0.0173077 -0.99919 0.0363309
4.9815 -4.22933 -1.186 -0.142276 0.217144 -0.965715
6.9235 -3.8905 -0.62125 0.165347 -0.498289 -0.851098
4.406 -4.94875 -0.3865 0.301252 -0.0671918 0.951174
6.25127 -2.03941 0.150793 -0.255002 -0.760779 -0.596816
7.915 -6.5495 0.408333 0.985724 -0.125157 -0.112627
2.148 -1.66175 0.406 0.982875 0.167643 0.0765063
-6.6051 0.627333 0.651639 0.954972 0.0171738 0.296199
-6.32289 2.15088 0.646908 0.9738 -0.227402 -0.0013748
-6.09487 3.37568 1.04992 -0.848027 0.397538 -0.350449
-0.649732 0.948535 1.57566 0.0151816 -0.026425 0.999536
-5.48404 1.65674 -0.948222 0.445329 0.290894 -0.846795
-1.677 3.031 -0.893 0.592838 0.240857 0.76846
-5.06 5.702 -1.047 0.272061 -0.961704 0.0332843
-1.63133 3.591 -0.279333 -0.632753 0.203466 -0.747145
-9.001 -5.221 0.424 0.297301 -0.807118 0.510071
-5.85052 -5.54479 0.648517 0.18317 0.983025 0.0105465
-0.645672 -1.84563 1.54076 -0.101683 0.263871 -0.959183
-10.2307 -5.78133 -1.165 -0.350577 0.934063 -0.0679858
-8.0515 -3.9845 -1.142 0.510131 -0.299614 -0.806225
-4.82424 -2.89612 -0.151104 -0.663955 -0.382542 0.642515
0.348417 -0.449029 1.55271 0.000452601 -0.000927493 0.999999
2.006 -8.6 -0.471 0.316679 -0.0993466 0.943316
7.4904 -8.467 -0.4176 0.217693 0.162416 0.962409
3.54764 -1.45118 -0.430643 -0.00499043 0.436654 0.899616
-1.069 1.808 -0.524 0.875823 0.383458 -0.293076
-8.4565 -8.77 0.7342 0.265201 -0.0698626 -0.961659
