ply
format ascii 1.0
element vertex 500
property float x
property float y
property float z
property float nx
property float ny
property float nz
end_header
20.9596 7.64863 22.2457 -0.206494 0.181369 -0.961491
21.0537 13.0083 17.3507 0.220207 -0.916312 0.334487
21.139 8.7934 21.9976 0.473081 0.390101 0.789946
21.464 4.506 21.4 0.157069 0.791633 -0.590463
21.6617 4.86033 22.0523 0.925968 -0.2459 -0.28656
21.7501 8.14503 22.1093 -0.627738 -0.351172 -0.694711
21.8487 12.9481 16.8525 -0.298856 -0.902039 0.311467
21.8479 13.0922 17.6406 0.206711 0.964913 -0.161906
21.8498 8.71704 22.0031 0.627604 0.250135 0.737256
21.9497 13.4434 19.5458 0.261065 0.963062 -0.0660136
21.9493 11.1529 21.5879 0.991114 -0.0287724 0.129865
21.9492 10.0605 21.7918 0.962373 -0.170214 0.211816
21.9497 4.74776 22.7824 0.966432 -0.249398 -0.0617172
22.0382 12.6594 17.0496 -0.298856 -0.902039 0.311467
22.0446 6.04862 17.7503 -0.998748 0.0493618 0.00810004
22.0572 4.03404 18.035 -0.99874 0.0419993 0.0274509
22.0251 5.72087 18.0516 -0.998748 0.0493618 0.00810004
22.0496 12.9393 18.1526 0.324158 0.94068 -0.100213
22.062 4.54847 18.5483 -0.998136 0.0559173 -0.02445
22.05 13.1377 18.9592 -0.810097 -0.570305 0.135995
22.075 4.74927 19.7485 -0.999555 -0.0215467 -0.0206377
22.0676 13.2644 19.9481 0.186317 0.982474 0.00559234
22.0659 13.2339 20.0467 0.186317 0.982474 0.00559234
22.044 7.14575 20.1269 0.998003 -0.0359759 0.0519202
22.0526 10.3589 20.8631 0.991114 -0.0287724 0.129865
22.0796 12.2428 21.1467 -0.928257 -0.151023 -0.339898
22.0772 11.2465 21.2487 -0.995352 0.0075818 -0.0960013
22.0833 10.7484 21.4418 0.991114 -0.0287724 0.129865
22.0702 4.64389 21.8231 0.925968 -0.2459 -0.28656
22.1108 5.95906 18.0433 -0.998748 0.0493618 0.00810004
22.1117 4.24669 18.3513 -0.998136 0.0559173 -0.02445
22.1032 7.45111 22.0516 -0.357042 -0.319639 -0.877697
22.1127 5.44953 22.4497 -0.870798 -0.0316238 0.490623
22.1163 4.84873 22.5464 0.966432 -0.249398 -0.0617172
19.3782 12.4357 21.2593 -0.776797 -0.62149 -0.101667
19.3892 12.042 21.4299 0.919733 0.0353611 0.390949
19.3823 10.8565 21.5557 0.272817 0.223822 0.935668
19.3851 9.34992 21.7473 0.929052 -0.0712941 0.363015
19.4125 3.81035 17.5025 0.842224 0.32699 -0.428645
19.4235 12.1835 17.501 0.815193 -0.175814 0.551861
19.499 5.505 19.013 -0.827483 0.464406 -0.315593
19.45 12.5567 19.5753 -0.596927 -0.755663 -0.26954
19.4005 5.017 19.9683 0.964811 -0.235884 0.116179
19.4186 12.4172 20.0482 0.683312 0.707322 0.18105
19.4016 7.14095 22.1549 -0.835229 0.123715 0.535805
19.4193 4.44997 22.651 0.137509 -0.129063 -0.982056
19.4198 4.45107 22.7538 0.137509 -0.129063 -0.982056
19.4244 4.05122 22.8517 0.141104 -0.208814 -0.967722
19.544 7.337 17.2822 0.9503 -0.200879 0.237859
19.5852 6.944 19.1674 0.983446 0.168046 0.0677826
19.588 6.501 20.486 0.987078 0.14761 0.0623613
19.6216 5.55786 16.669 0.985817 -0.167429 0.0115208
19.6035 6.839 19.122 -0.999728 0.0190202 -0.0134798
19.6424 4.6194 20.122 -0.906642 0.410009 0.0994588
19.6629 5.75901 21.0841 0.930652 0.365789 -0.00929095
19.6493 7.92895 22.2057 -0.305873 0.514891 0.80083
19.6494 6.14901 22.5227 -0.199714 0.207872 0.957551
19.7924 5.5884 17.6494 -0.901827 -0.247536 0.354167
19.793 9.44467 17.8073 0.924335 0.212074 -0.317221
19.7746 4.75821 18.5572 0.176879 -0.535146 0.826034
19.735 11.767 21.172 0.820698 0.545105 0.171218
19.8477 12.1708 17.0504 -0.278565 -0.140709 -0.950054
19.8695 13.0035 17.148 -0.142523 -0.316505 0.937823
19.8702 13.0469 17.5409 0.905832 0.197525 -0.374769
19.8003 6.299 18.2847 0.944355 0.325781 0.0453816
19.8333 9.679 19.0762 0.948571 0.310137 -0.0634627
19.8145 12.0273 21.245 0.820698 0.545105 0.171218
19.8515 9.84531 21.8155 0.908261 0.104147 0.405235
19.9181 12.9385 16.945 -0.142523 -0.316505 0.937823
19.9811 12.548 19.8367 0.04773 -0.600444 -0.798241
19.9297 10.1583 21.1666 -0.100705 0.10879 0.988951
20.0228 12.285 17.0432 -0.278565 -0.140709 -0.950054
20.0491 6.02992 17.549 -0.995015 0.0421 0.0904027
20.0109 8.71379 17.9655 0.859968 0.39223 -0.326513
20.0101 8.72738 18.0544 0.859968 0.39223 -0.326513
20.0713 9.68217 18.4897 0.922529 0.336319 -0.189285
20.0646 5.59891 18.7018 -0.726768 -0.315509 -0.610133
20.0561 8.62586 19.1047 0.971278 0.225147 0.0769872
20.032 5.73972 22.6061 0.997515 0.035055 -0.0611173
20.1318 8.33333 17.7798 0.925048 0.37985 -0.000736772
20.1136 8.64229 17.7034 0.925048 0.37985 -0.000736772
20.1202 9.049 18.39 -0.85828 -0.248585 0.448956
20.1774 12.4415 18.3075 -0.875172 0.0928414 0.47482
20.1708 3.6964 19.1006 0.826035 0.419078 0.376882
20.147 11.8511 20.2371 -0.643708 -0.702893 -0.302624
20.1974 4.94742 21.2782 -0.633375 -0.612613 0.472802
20.179 11.1105 21.412 -0.0724207 0.218812 0.973076
20.1077 6.651 22.4261 0.0944157 -0.251088 -0.963349
20.2888 5.65655 17.6716 -0.996633 0.0381539 0.0725742
20.2485 13.1419 18.0343 -0.865924 0.0517407 0.497492
20.2626 8.05544 18.2046 0.925048 0.37985 -0.000736772
20.2196 13.586 20.5453 0.0395406 0.393932 0.918288
20.2584 10.2232 21.5124 -0.100705 0.10879 0.988951
20.3091 8.34806 18.0776 0.925048 0.37985 -0.000736772
20.352 12.8092 18.072 0.969466 0.198647 -0.143791
20.3515 4.16443 22.895 -0.123227 -0.189282 0.97416
20.4505 10.6891 18.349 -0.909498 0.22626 0.34874
20.4722 13.2484 18.597 -0.928195 -0.00992445 0.371962
20.4286 4.68313 21.3897 -0.633375 -0.612613 0.472802
20.4496 4.74961 21.3799 -0.633375 -0.612613 0.472802
20.4497 3.94959 22.9338 -0.274175 0.00116065 0.961679
20.5786 3.74083 18.2466 0.847108 0.119165 0.517888
20.5503 4.45137 21.4176 -0.167712 -0.538687 0.825644
20.7898 5.12908 16.6336 0.569334 0.794191 -0.212411
21.1368 10.1322 10.4509 -0.0840953 -0.322781 -0.94273
21.16 8.98067 10.5072 0.329534 0.158437 0.930755
21.168 10.6473 10.6583 0.26752 0.825712 0.496621
21.103 7.288 10.953 0.0585625 -0.329046 -0.942496
21.1797 3.64766 11.8805 0.354066 -0.124271 0.926927
21.1977 4.27433 11.8357 -0.361268 0.418565 0.83324
21.2706 7.84714 10.6534 -0.114854 -0.291127 -0.949765
21.2 7.032 10.979 0.0319763 0.036987 -0.998804
21.2003 4.759 11.708 -0.296929 -0.61907 -0.727039
21.3472 4.907 11.2002 0.330522 -0.102897 0.938172
21.4476 6.0724 10.9941 -0.0769127 0.278219 0.957433
21.512 10.07 10.784 0.510999 0.824654 -0.242541
21.7491 10.3573 10.1867 0.383039 0.169884 -0.907976
21.7536 12.107 12.4671 -0.864835 -0.501512 0.0233534
21.7481 12.5218 15.3534 -0.186258 -0.97114 0.148982
21.8494 10.5548 10.1484 0.242878 0.232653 -0.941745
21.8491 9.9539 10.2611 -0.296563 -0.607661 -0.736749
21.8493 8.54475 10.5212 -0.0365885 0.115079 0.992682
21.8495 8.05365 10.6123 0.00752232 -0.197731 -0.980228
21.8475 4.83506 11.2074 -0.0807833 0.696516 0.71298
21.8481 11.9408 11.5537 0.963506 0.265308 -0.0356171
21.8503 11.9928 11.8416 -0.901345 -0.432859 0.014514
21.8482 12.0848 12.3476 -0.864835 -0.501512 0.0233534
21.9816 10.4604 10.343 0.383039 0.169884 -0.907976
21.9756 11.0408 10.3502 0.242878 0.232653 -0.941745
21.9826 8.452 10.7477 -0.0365885 0.115079 0.992682
21.9873 6.25022 11.1564 -0.485479 -0.0119913 0.874166
21.9938 11.6572 11.6472 0.963506 0.265308 -0.0356171
21.9672 7.24681 11.7684 -0.747052 -0.56207 0.35495
21.986 10.399 12.293 0.957171 -0.244195 0.155537
21.9729 8.85562 12.681 -0.874356 0.152867 0.46058
21.9734 7.2509 12.9787 -0.312421 0.74631 -0.58772
21.9816 8.0508 14.0517 -0.39848 -0.846635 -0.352735
22.0161 12.1602 14.0584 -0.846354 -0.525099 0.0891974
22.0177 5.54379 14.3457 0.208137 0.550595 -0.808409
22.018 12.2522 14.5553 -0.186258 -0.97114 0.148982
19.3095 4.896 11.86 -0.0906145 0.887434 -0.451939
19.3133 3.8529 12.1483 0.598769 -0.151276 0.786506
19.317 11.9054 12.5671 0.897299 0.397462 0.192037
19.311 11.9135 13.5055 -0.168464 0.978659 -0.117668
19.3223 12.064 14.167 -0.196897 0.980284 0.0165984
19.4473 4.17496 11.7898 -0.484884 -0.201048 -0.851156
19.4668 12.0673 13.146 -0.163882 -0.978674 0.123852
19.4035 6.3585 13.8875 0.385393 0.0637272 0.920549
19.4611 7.15761 13.9805 0.713551 0.4777 0.512491
19.5567 4.42445 12.5054 -0.68327 0.570364 -0.45588
19.5397 5.02733 12.5648 -0.192977 0.546027 -0.815239
19.5175 4.4535 13.4065 0.879395 -0.476082 -0.00308656
19.5728 5.8878 13.9548 -0.3337 -0.0937418 -0.938007
19.5457 4.92918 14.0359 0.973591 -0.205936 0.0985443
19.5508 5.52612 14.0202 -0.699452 -0.212427 -0.68238
19.5506 12.7915 16.1477 -0.849273 -0.38742 0.358666
19.613 5.0795 12.989 -0.11336 0.964635 -0.237969
19.6499 4.52287 14.1173 0.814421 -0.558883 0.156102
19.6472 4.79687 14.3525 0.976587 -0.213434 -0.0269064
19.7544 11.9371 11.5772 0.526923 0.475135 0.704698
19.7737 5.44745 15.394 -0.944279 0.306679 -0.119517
19.7763 5.272 15.8169 0.991814 -0.113513 0.0584692
19.891 12.0909 15.6368 -0.24199 -0.969615 -0.0358853
19.9551 9.1519 10.8501 -0.167649 -0.0952246 -0.981237
19.949 11.703 12.528 0.816914 0.557718 0.146976
19.965 7.3538 12.8776 0.955545 -0.0212429 0.294078
19.912 12.0145 15.1425 0.276437 -0.960991 0.00885891
19.9978 10.5528 16.0636 0.989356 0.145518 0.000577366
19.996 6.52067 16.357 -0.992689 0.0283781 -0.117321
19.9205 6.333 16.4335 0.98453 -0.154588 -0.082477
20.099 5.5545 10.825 0.560916 -0.572311 -0.598191
20.0515 8.64935 10.965 0.184723 -0.0938339 0.978301
20.024 4.798 12.536 -0.192977 0.546027 -0.815239
20.0777 5.30633 12.8693 -0.11336 0.964635 -0.237969
20.0348 6.78017 13.6533 -0.854204 -0.250762 -0.455471
20.0367 5.2925 13.7733 -0.624158 -0.0346093 -0.780531
20.036 6.1915 13.7765 0.344533 0.104686 0.932919
20.1323 8.43567 10.5943 0.184723 -0.0938339 0.978301
20.152 7.296 10.9113 0.0424728 -0.26556 0.963158
20.1134 4.2597 11.0795 -0.960392 0.275067 -0.044561
20.1065 6.65043 11.5581 0.465544 0.506764 0.725575
20.1355 4.61238 11.7048 -0.293866 0.463011 -0.83622
20.1164 5.15232 13.5354 -0.333308 0.940699 0.0631723
20.178 11.921 13.701 0.561048 -0.264461 -0.784402
20.101 8.393 14.803 0.991211 -0.102401 -0.0837496
20.1163 8.03894 16.3399 0.934648 -0.267842 0.233867
20.2474 4.5223 11.304 -0.293866 0.463011 -0.83622
20.3417 9.5775 10.5743 -0.135069 -0.0526236 -0.989438
20.3452 8.62377 10.9733 0.184723 -0.0938339 0.978301
20.3478 5.35248 11.1651 0.560916 -0.572311 -0.598191
20.453 10.2156 10.7283 -0.214723 -0.0360294 -0.97601
20.4529 6.95205 10.8433 0.0694696 0.113309 -0.991128
20.4503 9.42633 10.807 -0.135069 -0.0526236 -0.989438
20.4487 6.61927 10.9028 0.752555 0.232469 0.616133
20.4507 12.4832 15.143 0.0870065 -0.986768 0.136817
20.5447 10.4395 10.5228 -0.163087 -0.0278444 -0.986219
20.5581 4.24971 11.349 -0.960392 0.275067 -0.044561
20.525 4.972 11.5956 0.901187 -0.349884 -0.255819
20.5203 5.2492 11.5595 0.517471 -0.560471 -0.646603
20.5217 5.35044 11.539 0.523549 -0.598802 -0.60608
20.552 10.8567 12.2593 0.274132 0.592926 0.757159
20.6647 9.94257 10.6683 -0.214723 -0.0360294 -0.97601
20.6655 9.83183 10.7088 -0.315336 0.0117763 -0.948907
20.6264 7.29006 11.0408 0.0360067 0.0428994 -0.99843
20.7505 5.87358 11.0302 0.41239 -0.779149 -0.472081
21.0475 -2.67512 18.2483 0.187223 0.819863 -0.541084
21.1503 -2.14404 20.749 -0.178009 -0.935333 0.305719
21.5525 -2.43482 19.4507 -0.0145395 -0.985086 0.171448
21.5524 0.181595 23.5951 0.824497 0.0384952 0.564555
21.8503 -2.78602 17.6484 -0.887515 0.415357 -0.199488
21.8487 -2.57835 18.7492 0.255343 -0.966053 0.039255
21.8509 -2.3937 19.7598 0.00179748 0.98648 -0.16387
21.8496 -2.28545 20.3478 -0.00188174 0.983314 -0.181908
21.8498 -2.15554 21.0474 -0.00558593 0.937181 -0.348799
21.8482 3.02643 23.1046 -0.0223643 0.181309 0.983172
21.9506 -2.17289 20.9517 -0.00558593 0.937181 -0.348799
21.9449 -1.79678 22.9769 -0.992382 0.118378 -0.034131
21.9495 1.05219 23.4659 -0.226004 -0.197375 -0.953921
21.9493 -0.152033 23.6894 0.865285 0.426792 0.262926
21.9491 -1.24697 23.8829 0.991256 -0.112129 0.0695608
22.0785 -2.65003 16.7521 -0.803299 0.5395 0.252291
22.0584 2.45059 17.15 0.987518 -0.146777 -0.0571435
22.0578 2.05042 17.2494 0.958475 0.183973 -0.2179
22.0845 -2.54989 17.3488 -0.85135 0.517325 -0.0870546
22.0926 -2.45654 17.8491 -0.905895 0.337888 -0.255314
22.0723 2.35018 18.949 -0.986698 -0.151961 -0.0577446
22.0916 -0.186473 22.7543 0.865285 0.426792 0.262926
22.109 2.34567 17.4243 0.915404 -0.000649548 -0.402536
22.1054 1.7531 17.5398 -0.876108 0.130034 0.464249
22.1207 -1.7511 21.4524 -0.840271 0.540647 -0.0405699
22.1363 -1.7489 22.0644 -0.241163 0.957851 -0.156081
22.1415 -1.65165 22.6441 -0.992382 0.118378 -0.034131
22.1239 1.64984 23.0473 0.088507 0.147618 0.985076
22.151 -1.5748 23.2754 0.986717 -0.121122 0.108251
22.1382 -0.553227 23.4495 -0.982874 -0.0829993 -0.164531
22.1459 -1.3595 23.5459 0.991256 -0.112129 0.0695608
22.305 2.905 17.935 -0.917129 -0.31681 0.241879
22.473 2.05614 18.0676 0.908235 -0.00701217 -0.418403
22.4332 1.3362 18.2078 0.949286 0.302155 -0.0869353
19.2838 -2.65383 19.6683 -0.342993 0.9368 -0.0690048
19.4044 -2.34368 18.7488 0.861523 -0.031814 0.506721
19.4353 -1.76225 22.1551 0.950647 -0.0353461 -0.308256
19.4458 -1.16267 23.536 0.775941 0.619153 -0.120682
19.457 -0.0862498 23.6463 0.520979 -0.373784 -0.767377
19.5098 3.394 22.8472 -0.11885 -0.120014 0.985633
19.65 -0.184671 17.9674 -0.974984 -0.076454 0.208714
19.6444 1.6662 18.1724 0.982278 -0.108838 0.152592
19.6074 2.4668 20.9522 0.179134 0.878399 0.443087
19.613 1.4096 22.1948 -0.808285 0.195259 0.555472
19.7 -0.685 22.4873 -0.0685093 0.735392 0.67417
19.685 2.35343 22.5554 -0.920345 -0.299044 0.252066
19.6746 0.516668 22.6287 -0.964323 -0.105237 0.242913
19.632 -1.001 22.8515 -0.700974 -0.572251 -0.425633
19.6502 3.24875 23.0718 -0.11885 -0.120014 0.985633
19.73 -2.496 16.902 0.509045 0.847905 -0.148088
19.7719 -2.31217 20.2485 -0.750084 0.629859 0.201622
19.7158 0.643111 21.7944 0.920107 0.390665 -0.0280019
19.799 1.949 21.9 0.946596 -0.183405 0.265178
19.724 1.53 22.492 -0.808285 0.195259 0.555472
19.7159 0.766429 22.5043 0.767763 -0.614489 -0.181501
19.7542 0.416 23.1108 -0.71943 0.40494 0.564309
19.8488 -2.81676 17.5573 0.465514 0.884742 -0.0229812
19.8558 -1.2499 19.9372 -0.947726 -0.257535 0.188393
19.858 -0.214 22.396 -0.00211798 -0.537368 0.843345
19.8221 2.72929 22.7209 0.988535 0.00342466 0.150956
19.937 -1.6556 19.9567 -0.971159 -0.238045 0.0135986
19.9834 -1.22285 20.5154 0.651127 -0.750617 0.112284
19.938 0.104 23.147 -0.35985 0.780401 0.511353
20.0536 -2.4778 17.5586 -0.0777958 0.981013 0.177655
20.052 -1.53816 18.3501 0.516843 -0.543064 0.661782
20.0385 -1.5085 19.516 -0.77951 -0.296586 0.551725
20.0268 -2.15486 21.0807 -0.244899 -0.61056 0.753154
20.0402 1.8144 22.73 0.0452926 -0.292515 0.955188
20.057 0.675 22.998 0.607013 -0.544825 -0.578534
20.145 -2.7106 18.2246 -0.0953781 -0.994323 0.0471706
20.181 -2.11 19.942 0.758149 0.334828 0.559553
20.1512 -2.29137 20.259 -0.683629 0.687175 0.24585
20.1631 3.24985 22.0203 0.805428 -0.591387 0.0393334
20.1123 -1.55233 22.894 0.0532455 -0.816891 -0.57433
20.1955 2.332 23.0342 0.327613 0.038604 -0.944023
20.2085 -0.197999 21.981 -0.0581583 0.654223 0.754062
20.226 -1.0105 22.4105 0.0850932 0.497057 0.863535
20.2134 3.22958 22.6541 -0.126376 -0.990237 -0.0588283
20.2534 0.174849 23.6381 0.0295237 0.6371 0.770216
20.3494 -2.79443 17.6613 -0.231599 -0.962705 0.139862
20.3808 -0.940999 20.8616 -0.175461 0.798905 0.575295
20.4506 -2.92646 16.9491 0.572222 0.794319 -0.204007
20.4486 -2.68186 18.2375 0.187223 0.819863 -0.541084
20.4508 3.14884 23.0825 0.0621343 -0.159924 -0.985172
20.59 -0.426499 22.1025 0.305562 0.623744 0.719427
20.6188 -1.87742 20.9326 -0.22878 -0.0978371 0.968549
20.614 1.78983 22.3062 -0.0309773 -0.852582 -0.521674
20.6252 -0.96075 22.674 0.610916 -0.65043 -0.451356
20.6485 2.7482 23.1264 0.328769 -0.25329 -0.90981
20.6502 -0.42155 23.709 0.197921 -0.0186364 -0.980041
20.8495 2.25221 23.2177 -0.106307 0.0649447 0.99221
21.0499 -3.64925 12.7827 0.403063 -0.666545 -0.627102
21.1703 2.9524 11.9759 0.105981 -0.179707 0.977995
21.2474 -1.31485 12.4146 0.0157561 0.232248 -0.972529
21.216 0.955334 12.4313 -0.0944001 0.654947 -0.749756
21.3496 0.0753043 12.0952 0.102681 -0.123911 0.986966
21.597 -3.202 14.168 -0.980072 0.121039 -0.157504
21.7492 -1.65654 12.4091 0.216733 0.0463581 -0.97513
21.749 -3.54974 13.5444 -0.410895 0.906044 -0.101243
21.7236 3.34529 15.182 0.509987 0.847588 0.146654
21.8489 -0.548777 12.2077 0.341753 -0.289316 -0.894148
21.8499 -1.55169 12.3863 0.216733 0.0463581 -0.97513
21.8497 -2.35194 12.533 -0.857569 0.372922 0.354267
21.8486 -2.95143 12.6442 -0.679757 0.515367 0.52185
21.8497 -3.4049 14.3302 -0.772578 0.630572 -0.0741835
21.9927 2.928 12.4589 0.0301362 0.999531 0.00548428
21.9851 2.95349 12.5651 0.0301362 0.999531 0.00548428
21.9867 0.849287 12.9599 0.428559 0.42326 -0.798241
21.995 -2.0258 13.4874 -0.993578 -0.0504431 0.101284
21.9916 3.34567 13.7122 0.993927 0.0795334 0.0760523
22.0146 2.86294 11.7535 0.0301362 0.999531 0.00548428
22.0174 0.448608 12.2436 -0.436423 -0.331632 0.836394
22.022 -0.750347 12.557 0.706111 -0.0490879 -0.706398
22.0225 1.25023 13.1487 0.288704 0.644843 -0.707691
22.0078 -3.04947 13.6873 0.986781 -0.159308 0.0297273
22.0225 -1.73842 14.6577 0.970175 -0.19007 0.150449
22.0183 -0.0485082 15.5705 -0.999363 0.0106075 0.0340889
22.0204 -0.550323 15.6664 -0.999378 0.00618194 0.0347158
22.1054 2.26409 16.1794 -0.999765 -0.0202686 -0.00766704
22.1005 1.604 16.3065 -0.999765 -0.0202686 -0.00766704
19.3156 3.34694 12.2591 0.598769 -0.151276 0.786506
19.3385 -0.777249 12.486 -0.357153 -0.116696 -0.926727
19.3272 1.316 12.472 0.765962 0.635428 0.0976358
19.3424 -1.15971 12.9499 0.26494 0.114878 0.957397
19.364 -3.54033 14.2388 0.852412 0.078287 0.516977
19.3602 -1.06095 15.0637 0.942742 0.289472 0.165661
19.4492 2.84513 12.0113 -0.462296 -0.0601883 -0.88468
19.5513 -0.925499 12.2948 -0.357153 -0.116696 -0.926727
19.5495 0.85067 13.4441 -0.607341 -0.685544 -0.401455
19.5494 0.252691 13.5873 0.863525 0.371377 0.341181
19.5503 2.85715 15.5475 -0.462731 0.750099 0.472474
19.6353 -1.23628 14.4753 0.995183 0.0976667 0.00849071
19.6463 3.18686 14.5411 0.996174 0.0620556 0.0615327
19.7496 -1.35311 12.791 -0.5905 -0.500003 -0.633488
19.75 -2.13746 15.5901 0.822874 0.536327 0.187699
19.9934 0.521001 12.821 0.969543 0.201871 -0.138687
20.0487 -0.0466886 12.5598 -0.651962 -0.757763 -0.0272062
20.0574 0.233817 12.5095 0.511027 0.241729 0.824875
20.0069 0.652964 13.226 -0.793689 -0.515286 -0.323325
20.123 -2.978 12.887 0.428734 0.33851 0.837614
20.2528 2.87206 11.6089 0.0421917 -0.0863423 0.995372
20.2498 -2.17053 12.5212 0.417809 0.232812 0.878199
20.2187 -3.02062 16.4509 -0.476704 -0.872406 0.107989
20.3473 -3.07333 16.149 0.552182 0.832911 0.0367965
20.4685 -1.55944 12.4064 -0.239658 -0.236275 -0.941668
20.522 -0.705999 12.177 0.0622911 -0.0476092 0.996922
20.5323 -0.143863 12.5479 -0.756044 -0.634617 0.160184
20.6445 -0.0382462 12.3626 0.3162 -0.209869 0.925188
20.6521 -3.08926 15.9477 0.552182 0.832911 0.0367965
20.7525 -6.98797 11.7545 0.517196 -0.266129 0.813439
20.85 2.74987 11.6354 -0.088234 0.347626 -0.933473
20.9093 3.346 11.8853 -0.088234 0.347626 -0.933473
21.0247 8.538 22.5797 -0.376555 -0.0835906 -0.922615
21.5518 13.3862 19.2497 -0.120475 -0.978464 0.167611
21.6467 12.5498 21.328 -0.928257 -0.151023 -0.339898
21.5497 9.05143 21.9442 0.473081 0.390101 0.789946
21.8673 6.28202 22.4969 0.187085 0.197461 0.962293
21.8728 5.71218 22.6024 -0.870798 -0.0316238 0.490623
21.7885 4.11378 22.9019 0.429563 -0.421601 -0.798579
22.0461 5.24835 17.5499 -0.995453 -0.00962595 0.094763
22.0561 4.14441 17.9513 -0.99874 0.0419993 0.0274509
22.0565 5.54818 18.7489 -0.998345 -0.0215181 -0.0533331
22.0654 4.54875 18.8485 -0.998719 0.0461953 -0.0206262
22.0755 13.345 20.7549 0.992826 0.0288121 0.116047
22.0819 10.7441 21.3518 0.991114 -0.0287724 0.129865
22.1145 4.85779 18.1897 -0.999874 -0.00708112 0.0142045
22.105 8.521 21.782 0.627604 0.250135 0.737256
19.4607 10.2873 17.908 0.903937 -0.141759 -0.403489
19.3845 14.1305 19.4745 0.77644 0.594675 0.208572
19.7499 4.96559 17.0474 -0.491386 -0.80665 0.328413
19.7035 6.785 19.5842 0.983446 0.168046 0.0677826
19.7488 5.85236 19.8413 0.945206 -0.107731 0.308187
19.8333 11.9106 20.323 -0.643708 -0.702893 -0.302624
19.776 5.24884 21.3663 0.781067 0.585547 -0.216957
19.9785 13.7795 17.692 0.905832 0.197525 -0.374769
20.0921 3.81183 17.9114 -0.642108 -0.665793 0.380022
19.9495 7.15024 22.3484 -0.0672172 0.185052 0.980427
19.9505 5.95146 22.5559 -0.933971 0.0101353 -0.357206
20.192 11.554 18.289 -0.844994 -0.00579239 0.534744
20.2498 5.43861 19.2525 0.0707537 -0.787641 0.612059
20.1468 5.27417 21.7745 -0.595369 -0.704137 0.386945
20.474 12.603 17.1803 0.243772 0.0257965 -0.969489
20.6817 4.57622 17.1723 0.983128 -0.181222 -0.0248447
20.5786 3.74083 18.2466 0.847108 0.119165 0.517888
20.6787 4.86443 18.3067 -0.783599 -0.192835 -0.590583
20.6499 13.3736 19.2537 -0.473584 0.864739 0.167164
20.6451 4.11186 22.9017 -0.274175 0.00116065 0.961679
20.765 10.666 21.705 0.221644 -0.309689 -0.924644
21.0595 7.4365 10.8623 0.0585625 -0.329046 -0.942496
21.1493 5.70735 11.5201 -0.342098 -0.236136 -0.90951
21.2151 8.76333 12.5524 -0.166694 0.74139 0.650042
21.4515 10.3513 10.1919 -0.136585 -0.187803 -0.972664
21.3504 9.44908 10.36 -0.31512 0.143259 -0.938177
21.6485 4.95059 11.1888 0.330522 -0.102897 0.938172
21.8503 11.9928 11.8416 -0.901345 -0.432859 0.014514
21.975 10.902 10.527 0.242878 0.232653 -0.941745
21.9789 10.144 10.9291 0.95166 -0.307139 0.00302093
21.9906 5.24835 11.4522 0.330522 -0.102897 0.938172
21.991 11.3635 11.587 0.955718 0.27959 -0.0918347
21.9988 4.28319 11.9418 -0.0134616 -0.531288 -0.847084
22 11.743 12.4915 0.887054 0.460982 -0.0251022
22.0131 11.8519 14.143 -0.846354 -0.525099 0.0891974
22.0282 12.259 16.1456 -0.879994 -0.463196 0.105164
19.3392 12.2738 16.1762 0.939436 0.231668 -0.252568
19.5205 7.005 10.9705 0.465544 0.506764 0.725575
19.6465 7.2825 12.84 0.955545 -0.0212429 0.294078
19.8873 5.399 14.8697 -0.989155 0.0617685 0.133254
19.9563 7.44852 11.1686 -0.0211853 -0.606652 -0.794685
20.0099 10.7943 12.3493 0.816914 0.557718 0.146976
20.0544 6.5688 12.837 -0.64078 -0.538025 -0.547659
19.9322 10.2555 14.38 -0.999026 -0.0194529 -0.0396053
20.1364 3.84743 11.8342 -0.369563 -0.55223 -0.747305
20.1164 5.15232 13.5354 -0.333308 0.940699 0.0631723
20.1499 12.4016 13.9678 -0.170448 0.968614 -0.180927
20.7615 4.52 13.348 0.693771 0.676568 -0.246855
20.9044 8.3535 10.6355 0.184319 0.174946 0.967171
21.1505 -1.90578 22.3256 0.383857 0.830702 -0.403223
21.4503 -2.45339 19.3519 0.00305867 0.982986 -0.183656
21.4494 -0.0526299 23.6416 0.139612 -0.939819 0.311847
21.6484 -2.91993 16.9501 0.666419 -0.745306 0.020124
21.5493 -2.34018 20.0504 0.00179748 0.98648 -0.16387
21.7892 1.93828 23.3064 0.088507 0.147618 0.985076
21.7911 2.509 23.201 0.0711109 0.0945802 0.992974
22.0779 -2.452 16.9441 -0.803299 0.5395 0.252291
22.088 -2.24724 17.9523 -0.905895 0.337888 -0.255314
22.0872 -2.14037 17.8519 -0.905895 0.337888 -0.255314
22.1 -2.668 16.993 -0.803299 0.5395 0.252291
19.4087 -1.99125 19.4462 0.799127 -0.512055 -0.314954
19.4237 -1.6755 21.0576 0.938971 -0.187865 0.288168
19.4242 1.16383 21.3905 0.935362 -0.350281 0.0490065
19.416 -0.397999 21.742 -0.398471 0.316556 0.860821
19.607 2.323 21.031 0.76044 -0.309839 -0.570728
19.7493 -2.6 18.6928 0.230795 -0.741622 0.629865
19.8447 2.26973 23.2509 -0.557036 0.0742412 0.827163
19.901 0.897001 19.856 0.976591 0.212001 0.0364007
20.1488 0.175281 20.235 0.865566 -0.0794026 -0.49446
20.1679 -1.19441 20.5308 0.817127 0.229336 -0.528874
20.2144 1.84937 21.7764 -0.318138 0.926494 0.200989
20.4533 -1.45728 23.4409 0.560815 -0.674234 0.480515
20.6082 -2.16632 18.6456 -0.333558 -0.273231 0.902266
20.9611 -3.12047 12.6972 0.216342 0.149208 0.964849
21.3483 -6.94153 12.0524 -0.0333544 0.348424 -0.936743
21.6516 3.14962 11.5225 0.105981 -0.179707 0.977995
21.5501 -0.346685 12.1734 -0.445794 0.197263 0.873129
21.5474 -3.65304 12.7775 -0.651348 0.588992 0.478367
21.6496 -3.3263 14.7455 0.366143 -0.890528 0.27
21.5467 3.37885 15.3898 0.509987 0.847588 0.146654
21.9826 3.14984 12.537 0.0301362 0.999531 0.00548428
22.0282 -0.853461 12.6502 0.706111 -0.0490879 -0.706398
21.9942 2.02866 13.9484 -0.999981 -0.00532319 0.00305572
19.7643 -3.401 14.404 0.785508 -0.609253 0.10857
19.8672 2.1812 14.2322 0.879612 -0.319279 0.352624
19.8403 3.374 15.3979 -0.512303 0.236592 0.825573
20.0366 0.786907 12.3968 0.867848 0.45797 -0.192621
20.1499 -2.33165 12.8826 -0.600595 -0.219942 -0.768708
20.1192 -3.245 13.157 0.368382 0.193868 0.909236
20.116 -2.692 15.463 -0.669019 -0.699721 -0.250607
20.354 -4.30912 13.1806 -0.508661 -0.273774 -0.816279
20.3276 -0.0067997 13.229 -0.795635 -0.563759 0.221679
20.5607 -3.1 15.8947 0.552182 0.832911 0.0367965
21.1462 13.4815 19.8476 0.0604192 0.995439 0.073829
21.117 9.9745 22.8665 -0.74288 -0.153698 -0.651542
22.0566 12.6391 18.9573 -0.810097 -0.570305 0.135995
22.0853 8.24677 21.3458 -0.858462 -0.259439 -0.442419
22.102 5.932 17.994 -0.998748 0.0493618 0.00810004
19.3845 14.1305 19.4745 0.77644 0.594675 0.208572
19.3885 7.8805 21.2085 0.979648 0.12674 -0.155649
19.388 9.943 22.921 -0.254398 0.840088 0.479097
20.9099 7.05017 22.3569 -0.066828 -0.251075 -0.965658
21.2489 9.241 11.9869 -0.708763 0.502917 0.494702
19.4495 10.1436 10.6758 -0.0656007 -0.135604 -0.988589
19.8787 10.9235 14.1095 0.963683 0.174107 -0.202488
20.1135 8.406 13.0513 0.838252 -0.517699 0.171235
20.7615 4.52 13.348 0.693771 0.676568 -0.246855
20.9083 11.915 11.4505 0.0766191 0.795252 -0.601418
21.1516 -2.6051 18.6273 0.255343 0.876629 -0.407825
21.1469 -2.32289 20.1509 -0.0319067 -0.978442 0.204043
21.1503 3.44844 23.0194 -0.00793631 0.167628 0.985818
22.0706 -2.15265 16.649 -0.803299 0.5395 0.252291
22.0655 -1.85041 18.1604 0.973336 -0.148966 0.174432
22.0757 3.35027 18.9485 0.989462 0.0487884 0.136324
22.1167 -0.959464 23.0247 -0.999142 -0.0291191 0.0294533
19.607 2.323 21.031 0.76044 -0.309839 -0.570728
19.453 -1.06 23.702 0.775941 0.619153 -0.120682
20.193 1.16733 22.5618 0.733777 -0.115541 -0.669494
20.66 1.92775 16.792 -0.150846 0.925333 -0.347856
20.6252 -0.96075 22.674 0.610916 -0.65043 -0.451356
19.358 -4.0515 14.0155 0.852412 0.078287 0.516977
20.5423 2.85367 13.1217 0.454065 -0.885581 -0.097834
22.0527 4.34842 17.551 -0.995341 0.0259152 0.0928675
20.029 6.006 9.4 0.949474 -0.14106 -0.280359
20.0782 5.24943 12.8629 -0.11336 0.964635 -0.237969
20.0694 7.54764 16.5488 0.9503 -0.200879 0.237859
19.3817 -1.24837 16.8472 -0.95866 -0.213549 0.188062
19.976 2.931 19.808 -0.92617 -0.123666 -0.356252
